9.015061791,9.175909206,9.302083228,9.371419924,9.421941992,9.614153846,9.851117276,10.087717528,10.351031526,10.632847415,10.791505675,10.833725095,10.853740227,10.859994956,10.800998739,10.632645649,10.457372005,10.371783102,10.375424968,10.546794451,10.825977301,10.970582598,11.03089029,11.081039092,11.145836066,11.186501892,11.25074401,11.327656999,11.438617907,11.529614124,11.621558638,11.725871375,11.868075662,11.985583859,12.097351828,12.201160151,12.319192938,12.435954603,12.546643127,12.670184111,12.795409836,12.919566204,13.054052963,13.183051702,13.328605296,13.5070971,13.697452711,13.97267087,14.233029004,14.567162673,14.859752837,15.035470366,15.04875662,14.965891551,15.035773014,15.271263556,15.637528373,15.952605296,16.102668348,16.124055485,16.189377049,16.215445145,16.149306431,16.182103405,16.22406053,16.398214376,16.640181589,16.90458512,16.952706179,17.006244641,17.221598991,17.506138714,17.660912989,17.767757881,17.879838588,18.003742749,18.112938209,18.200211854,18.350930643,18.546854981,18.764509458,18.999535939,19.143586381,19.267803279,19.388166456,19.522401009,19.688807062,19.847546028,20.022284994,20.161261034,20.29880454,20.464726356,20.649997478,20.864020177,21.091843632,21.293155107,21.439213115,21.644226986,21.922421185,22.299228247,22.521220681,22.597911728,22.654244641,22.744464061,22.801139975,22.906663304,23.085952081,23.313250946,23.536998739,23.663909206,23.718547289,23.752837327,23.71392686,23.685165195,23.706098361,23.812126103,23.857593947,23.801150063,23.990960908,24.098522068,24.145412358,24.171732661,24.132620429,24.045245902,24.044650694,23.874461538,23.747651955,23.630809584,23.484307692,23.42645145,23.394592686,23.427177806,23.430688525,23.180549811,22.850925599,22.525941992,22.177462799,21.884872636,21.574970996,21.140176545,20.712252207,20.530622951,20.491581337,20.467601513,20.594148802,20.586068096,20.540116015,20.45658512,20.372791929,20.235954603,20.042461538,20.024998739,20.054577554,19.985261034,19.717447667,19.388428752,19.100216898,18.820701135,18.571016393,18.386017654,18.271354351,18.218088272,18.113614124,17.992312736,17.887424968,17.760827238,17.582295082,17.354733922,17.142264817,16.973972257,16.82043884,16.60087768,16.281916772,16.014779319,15.797972257,15.695404792,15.658673392,15.598174023,15.475551072,15.331419924,15.186370744,15.041422446,14.866037831,14.728191677,14.597447667,14.590517024,14.565397226,14.506199243,14.400847415,14.248948298,14.048161412,13.882522068,13.724529634,13.637377049,13.546259773,13.42697604,13.330209332,13.243087011,13.10779319,12.958809584,12.817725095,12.66487768,12.514965952,12.375334174,12.269619168,12.159303909,12.031989912,11.914491803,11.765588903,11.644277427,11.52665826,11.408302648,11.241977301,11.037044136,10.796721311,10.639485498,10.527667087,10.441422446,10.31497604,10.194461538,10.098441362,9.969967213,9.781175284,9.607546028,9.512615385,9.435359395,9.333044136,9.195308953,9.008453972,8.812923077,8.577493064,8.441039092,8.313563682,8.091167718,7.874370744,7.782476671,7.695858764,7.572469105,7.381881463,7.186128625
8.612630517,8.889805801,9.054940731,9.135525851,9.349972257,9.623142497,9.830527112,10.074047919,10.345846154,10.628983607,10.897412358,11.062335435,11.125124842,11.150214376,11.133659521,11.01734174,10.858501892,10.690622951,10.558537201,10.514703657,10.708812106,10.946935687,11.062436318,11.125508197,11.181437579,11.236196721,11.307974779,11.394653216,11.469669609,11.535889029,11.59801261,11.693669609,11.815969735,11.941881463,12.076237074,12.16268348,12.256857503,12.392554855,12.529614124,12.743303909,12.922733922,13.038627995,13.151172762,13.247556116,13.396711223,13.677377049,13.979571248,14.182688525,14.359687264,14.692822194,15.048383354,15.36052459,15.414930643,15.280464061,15.208675914,15.382678436,15.782375788,16.076862547,16.258108449,16.398476671,16.470284994,16.470779319,16.402290038,16.420529634,16.420045397,16.674007566,16.822244641,17.016675914,17.265886507,17.36496343,17.374295082,17.384151324,17.592080706,17.849977301,18.019520807,18.165598991,18.284166456,18.385856242,18.45512232,18.580257251,18.812186633,19.053054224,19.238547289,19.403692308,19.520918033,19.623566204,19.741134931,19.892348045,20.063031526,20.214174023,20.365377049,20.54435309,20.743535939,20.994794451,21.258320303,21.542355612,21.746007566,21.904282472,22.153715006,22.509104666,22.81827995,22.91386633,22.971177806,23.078486759,23.16110971,23.154027743,23.260448928,23.443167718,23.68986633,23.86837831,23.990416141,24.067934426,24.042693569,23.986834805,23.971692308,23.988943253,24.023626734,24.057089533,24.193039092,24.28548802,24.337563682,24.331006305,24.257311475,24.19141488,24.139944515,23.975556116,23.93938966,23.80274401,23.71398739,23.690259773,23.643258512,23.639919294,23.651581337,23.339076923,22.946592686,22.54037831,22.176655738,21.84379319,21.521533417,21.235288777,21.142749054,21.087455233,20.997215637,20.933760404,20.984090794,20.903424968,20.873442623,20.808796974,20.709588903,20.539682219,20.382042875,20.371803279,20.351757881,20.134113493,19.827066835,19.466986129,19.205407314,18.952453972,18.784696091,18.647636822,18.536030265,18.420529634,18.28917024,18.189447667,18.061457755,17.863757881,17.641785624,17.372842371,17.133578815,16.942567465,16.776766709,16.534416141,16.218128625,15.991838588,15.974496847,15.956095839,15.869447667,15.77979319,15.611379571,15.444691047,15.322168979,15.213356873,15.053800757,14.876428752,14.791021438,14.735596469,14.635379571,14.483692308,14.303596469,14.117185372,13.905856242,13.746229508,13.635762926,13.546895334,13.423828499,13.27591425,13.183273644,13.099006305,13.023909206,12.916408575,12.794794451,12.635894073,12.440907945,12.267197982,12.125003783,12.01541488,11.931440101,11.81378058,11.668368222,11.541175284,11.424807062,11.282986129,11.100418663,10.898320303,10.677730139,10.541518285,10.445528373,10.367515763,10.256484237,10.105331652,9.95918285,9.848080706,9.668701135,9.429074401,9.371863808,9.359313997,9.213861286,9.035571248,8.874895334,8.662456494,8.470981084,8.352736444,8.255142497,8.113230769,7.913936948,7.778733922,7.666834805,7.551717528,7.330925599,7.11830517
8.437467844,8.601795712,8.823303909,9.064796974,9.336938209,9.62282976,9.822355612,10.075773014,10.353029004,10.656978562,10.947187894,11.168645649,11.304766709,11.371883985,11.396368222,11.355208071,11.258199243,11.110698613,10.844005044,10.664665826,10.651208071,10.868741488,11.034431274,11.120746532,11.149356873,11.202501892,11.290058008,11.375384615,11.445064313,11.501457755,11.557679697,11.661165195,11.798799496,11.937160151,12.10423203,12.192665826,12.277326608,12.42680454,12.639092055,12.925306431,13.158002522,13.354925599,13.434300126,13.484559899,13.728010088,14.063969735,14.294738966,14.456272383,14.55702396,14.769452711,15.116580076,15.539732661,15.709578815,15.667773014,15.61985372,15.60969483,15.809896595,16.127031526,16.405659521,16.658854981,16.786431274,16.751858764,16.635611602,16.648242119,16.615283733,16.889059269,17.154269861,17.183354351,17.311172762,17.534960908,17.661276166,17.602310214,17.636721311,17.751899117,18.002633039,18.255495586,18.423596469,18.553099622,18.642602774,18.681261034,18.871081967,19.087394704,19.295979823,19.465957125,19.589104666,19.704141236,19.821034048,19.957336696,20.099873897,20.264121059,20.44280454,20.644327869,20.869851198,21.104040353,21.404781841,21.763480454,22.016726356,22.203490542,22.39317024,22.711273644,23.096302648,23.249271122,23.325286255,23.425523329,23.487959647,23.468822194,23.48443884,23.613397226,23.814738966,24.01208575,24.192635561,24.300176545,24.370229508,24.344807062,24.262617907,24.245245902,24.23235309,24.265624212,24.370643127,24.435076923,24.372348045,24.325276166,24.2736343,24.228005044,24.182607818,24.128312736,24.127525851,24.023778058,23.97635309,23.948327869,23.894991173,23.897997478,23.825089533,23.440686003,22.964781841,22.558436318,22.225513241,21.922824716,21.674370744,21.617442623,21.668327869,21.606930643,21.474754098,21.376564943,21.333266078,21.245407314,21.218814628,21.161967213,21.048302648,20.934385876,20.843601513,20.727445145,20.511192938,20.120393443,19.785936948,19.494688525,19.275238335,19.072332913,18.88682976,18.757003783,18.644499369,18.545775536,18.426249685,18.244691047,18.049230769,17.868307692,17.627752837,17.336534678,17.10178058,16.886032787,16.659470366,16.369795712,16.197901639,16.215818411,16.229568726,16.132973518,16.037427491,15.922582598,15.763722573,15.612640605,15.436317781,15.311152585,15.175112232,15.01786633,14.873301387,14.700580076,14.52998739,14.329977301,14.094617907,13.956136192,13.850764187,13.791959647,13.714996217,13.612368222,13.505220681,13.373326608,13.19258512,12.964428752,12.791485498,12.747258512,12.672807062,12.522350567,12.328605296,12.146522068,11.995460277,11.853477932,11.761079445,11.632020177,11.530068096,11.434471627,11.335909206,11.176464061,10.95164691,10.815626734,10.707833544,10.617089533,10.524136192,10.413064313,10.286214376,10.105967213,9.867994956,9.678930643,9.469901639,9.221770492,9.173155107,9.249513241,9.100569987,8.912776797,8.686819672,8.465765448,8.271899117,8.173962169,8.091994956,8.005467844,7.873523329,7.743505675,7.636519546,7.491308953,7.291167718,7.020095839
8.338007566,8.602572509,8.957417402,9.171440101,9.397518285,9.666421185,9.884156368,10.136907945,10.425523329,10.718345523,10.982849937,11.213467844,11.408665826,11.572953342,11.643409836,11.642390921,11.594764187,11.468489281,11.18978058,10.878517024,10.747722573,10.762875158,10.894779319,10.998607818,11.070184111,11.160443884,11.277054224,11.353644388,11.42282976,11.489805801,11.55807314,11.660640605,11.800201765,11.945482976,12.128837327,12.266068096,12.364358134,12.544847415,12.790627995,13.047515763,13.325155107,13.562945776,13.744242119,13.907974779,14.144544767,14.387873897,14.583273644,14.748923077,14.873139975,14.964348045,15.226300126,15.700590164,15.945886507,15.969472888,15.924348045,15.930421185,16.013820933,16.194552333,16.508337957,16.836933165,17.052095839,17.038648172,16.918335435,16.87731652,16.841462799,17.024948298,17.381760404,17.428317781,17.561785624,17.642834805,17.792474149,17.886607818,17.878567465,17.950113493,18.004832282,18.166960908,18.379873897,18.582436318,18.755551072,18.850108449,18.943687264,19.127969735,19.323066835,19.479969735,19.611339218,19.736907945,19.884791929,20.027530895,20.161936948,20.337331652,20.53717024,20.750799496,20.983737705,21.234138714,21.555056747,21.885235813,22.183556116,22.466229508,22.694436318,23.013891551,23.365921816,23.547732661,23.676398487,23.774749054,23.820448928,23.825291299,23.795732661,23.81786633,23.958617907,24.170733922,24.382244641,24.501629256,24.604186633,24.643208071,24.560736444,24.498854981,24.502456494,24.493286255,24.546875158,24.548660782,24.381387137,24.241916772,24.17658512,24.17015889,24.167889029,24.17132913,24.194441362,24.207737705,24.203641866,24.186915511,24.157427491,24.141185372,23.965689786,23.514027743,23.041039092,22.625119798,22.333114754,22.086083228,22.029730139,22.012226986,22.015102144,21.944403531,21.877276166,21.838981084,21.709044136,21.609230769,21.580791929,21.539873897,21.464393443,21.375233291,21.226794451,20.825735183,20.395369483,20.03386633,19.688171501,19.414284994,19.183192938,18.95223203,18.761543506,18.64227995,18.542860025,18.479757881,18.326769231,18.010269861,17.777513241,17.655616646,17.483258512,17.261709962,17.033230769,16.787319042,16.566345523,16.442965952,16.459904161,16.510052963,16.438174023,16.292852459,16.177745271,16.060418663,15.943858764,15.763339218,15.580408575,15.3790971,15.215293821,15.046204288,14.837740227,14.596388398,14.421508197,14.257775536,14.155803279,14.065392182,13.98779319,13.87731652,13.757598991,13.579087011,13.438587642,13.305230769,13.14458512,12.869921816,12.553674653,12.393412358,12.393200504,12.34481715,12.197407314,12.027228247,11.863858764,11.702577554,11.570885246,11.426663304,11.354935687,11.309074401,11.246547289,11.108469105,10.949740227,10.828025221,10.729563682,10.643712484,10.521886507,10.356368222,10.202199243,10.048191677,9.809462799,9.589276166,9.349820933,9.114865069,8.987359395,8.995682219,8.92793947,8.784948298,8.585392182,8.347500631,8.137442623,8.023384615,7.91859773,7.822567465,7.694254729,7.597145019,7.583606557,7.491692308,7.301972257,6.998385876
8.489967213,8.784181589,9.103495586,9.368474149,9.541104666,9.739500631,10.016887768,10.286153846,10.539228247,10.78837831,11.006960908,11.257755359,11.469578815,11.705654477,11.91317024,11.988943253,11.992050441,11.893831021,11.584373266,11.20332913,10.991556116,10.860680958,10.858209332,10.906602774,10.977301387,11.067087011,11.22534174,11.332882724,11.418088272,11.512696091,11.587248424,11.673513241,11.792242119,11.931773014,12.144918033,12.364388398,12.518648172,12.698915511,12.893528373,13.113916772,13.362955864,13.644105927,13.903737705,14.192575032,14.473150063,14.669669609,14.899843632,15.097624212,15.223969735,15.325901639,15.562794451,15.904141236,16.164923077,16.300247163,16.277508197,16.287031526,16.35941488,16.371974779,16.600706179,16.968827238,17.280544767,17.336181589,17.208141236,17.142113493,17.109921816,17.168847415,17.482572509,17.673825977,17.784928121,17.891470366,17.914622951,18.081240858,18.166355612,18.205962169,18.287949559,18.308509458,18.41652459,18.597467844,18.728857503,18.910174023,19.054083228,19.200706179,19.351989912,19.521947037,19.696766709,19.819359395,19.941215637,20.077790668,20.231142497,20.410401009,20.620045397,20.83112232,21.053165195,21.337412358,21.621639344,21.944242119,22.272796974,22.602168979,22.962612863,23.301145019,23.606870113,23.916701135,24.071788146,24.133205549,24.173387137,24.165820933,24.152887768,24.130633039,24.204933165,24.368131148,24.54954855,24.716933165,24.858209332,24.924600252,24.854052963,24.788489281,24.80186633,24.768,24.780721311,24.763087011,24.535162673,24.264766709,24.168564943,24.158749054,24.153200504,24.159132409,24.169139975,24.208796974,24.247667087,24.312443884,24.338955864,24.280857503,23.997649433,23.579631778,23.210794451,22.942446406,22.632726356,22.423051702,22.473785624,22.434128625,22.433069357,22.355440101,22.26429256,22.236953342,22.046204288,22.001321564,21.987117276,21.907883985,21.722269861,21.474047919,21.105936948,20.699672131,20.313452711,19.975283733,19.646668348,19.366476671,19.127626734,18.93191425,18.84075662,18.736897856,18.637931904,18.518113493,18.301387137,18.027006305,17.718224464,17.480393443,17.283843632,17.089704918,16.870103405,16.72215889,16.700398487,16.682643127,16.708015132,16.720786885,16.636226986,16.502769231,16.367465322,16.210532156,16.032645649,15.812348045,15.576675914,15.331924338,15.157740227,14.997770492,14.768433796,14.593896595,14.502759142,14.416847415,14.302870113,14.223667087,14.13786633,14.004791929,13.806910467,13.552998739,13.314310214,13.104363178,12.957881463,12.760403531,12.538865069,12.319102144,12.126436318,12.08642623,11.983949559,11.875409836,11.746865069,11.614355612,11.485417402,11.343374527,11.226784363,11.174163934,11.112696091,10.998506936,10.87445145,10.772953342,10.692923077,10.625523329,10.456665826,10.226703657,10.061851198,9.937846154,9.73027995,9.497220681,9.279949559,9.081321564,8.892872636,8.750607818,8.683551072,8.581286255,8.428751576,8.236993695,8.105321564,8.02820681,7.957609079,7.824161412,7.59013367,7.440272383,7.427339218,7.393472888,7.287293821,6.984010088
8.68496343,8.981649433,9.261366961,9.512494325,9.657886507,9.877810845,10.184343001,10.423535939,10.611460277,10.831697352,11.028741488,11.280413619,11.496282472,11.759021438,12.039334174,12.191838588,12.282491803,12.24186633,11.996852459,11.640413619,11.348186633,11.144433796,11.035379571,11.065452711,11.110456494,11.121321564,11.176625473,11.317427491,11.439576293,11.538693569,11.621790668,11.697412358,11.791455233,11.904464061,12.102395965,12.30972005,12.50785372,12.760464061,12.981609079,13.24227995,13.482148802,13.745351828,13.973911728,14.290592686,14.609815889,14.878718789,15.197629256,15.403117276,15.531581337,15.664796974,15.848110971,16.075006305,16.420005044,16.644479193,16.69162169,16.656383354,16.715157629,16.74265826,16.826037831,17.144141236,17.513331652,17.636317781,17.50867087,17.415424968,17.374880202,17.409452711,17.604509458,17.909699874,18.008766709,18.200514502,18.262274905,18.266885246,18.368302648,18.489382093,18.512474149,18.593150063,18.634229508,18.733851198,18.814648172,18.861165195,19.005750315,19.196348045,19.40835309,19.572761665,19.752766709,19.908247163,20.044005044,20.165417402,20.307682219,20.481725095,20.68992686,20.897129887,21.111878941,21.403248424,21.679697352,21.995662043,22.328484237,22.667167718,23.079697352,23.485679697,23.813982346,24.122310214,24.283843632,24.352373266,24.392665826,24.424151324,24.481664565,24.451056747,24.495394704,24.61606053,24.761957125,24.900711223,25.043349306,25.165972257,25.125609079,25.067066835,25.06429256,25.041674653,25.025805801,24.901699874,24.596943253,24.307732661,24.171440101,24.160494325,24.149568726,24.15317024,24.165397226,24.187833544,24.173820933,24.201725095,24.291016393,24.266643127,23.987672131,23.697422446,23.476105927,23.270860025,22.940358134,22.759919294,22.895102144,22.89372005,22.787994956,22.667339218,22.613831021,22.575697352,22.376655738,22.273059269,22.056433796,21.75976797,21.530128625,21.146945776,20.785493064,20.475520807,20.165044136,19.875540984,19.590466583,19.344100883,19.141286255,18.976403531,18.845941992,18.688605296,18.537624212,18.384141236,18.203278689,17.991051702,17.720736444,17.429911728,17.197568726,17.09191425,16.990799496,16.911626734,16.894476671,16.910002522,16.949800757,16.920070618,16.840686003,16.683258512,16.515046658,16.303889029,16.058320303,15.782194199,15.547692308,15.346612863,15.196812106,15.028539723,14.920776797,14.787591425,14.671061791,14.594310214,14.524226986,14.438345523,14.299752837,14.107006305,13.871344262,13.594168979,13.373134931,13.131662043,12.972196721,12.786300126,12.586612863,12.419107188,12.152050441,11.921382093,11.788025221,11.712615385,11.635228247,11.524418663,11.40572005,11.231233291,11.010148802,10.851692308,10.767727617,10.693689786,10.644781841,10.560998739,10.441119798,10.358284994,10.262385876,10.127596469,9.968998739,9.796105927,9.61658512,9.417452711,9.233674653,9.049220681,8.878617907,8.647717528,8.515510719,8.448332913,8.347773014,8.25074401,8.168423707,8.059863808,7.938431274,7.763631778,7.52764691,7.357346784,7.194441362,7.186068096,7.187419924,6.895424968
8.838375788,9.169503153,9.466653216,9.620781841,9.829810845,10.090713745,10.305462799,10.488554855,10.63912232,10.848635561,11.044105927,11.294809584,11.512373266,11.798991173,12.093921816,12.275571248,12.47317024,12.560796974,12.333962169,12.035490542,11.741235813,11.450844893,11.287909206,11.235651955,11.252620429,11.270517024,11.274461538,11.296625473,11.387843632,11.472453972,11.557609079,11.639586381,11.752070618,11.886123581,12.052005044,12.19591425,12.42668348,12.764882724,13.004973518,13.302547289,13.605851198,13.889745271,14.081331652,14.397740227,14.695677175,14.975011349,15.362895334,15.628943253,15.828660782,15.991132409,16.134466583,16.345715006,16.656262295,16.939682219,17.077861286,17.080564943,17.137271122,17.153977301,17.166234552,17.428832282,17.738713745,17.903061791,17.810370744,17.725760404,17.662486759,17.643651955,17.802209332,18.066290038,18.267016393,18.454749054,18.693205549,18.607324086,18.595308953,18.698471627,18.725235813,18.775546028,18.882269861,18.876751576,18.987349306,19.083117276,19.243016393,19.397447667,19.496201765,19.692156368,19.825150063,19.951667087,20.100499369,20.241180328,20.397145019,20.579762926,20.785886507,20.979510719,21.185876419,21.443571248,21.726617907,22.060428752,22.431435057,22.787863808,23.21162169,23.590244641,23.952010088,24.215889029,24.375354351,24.456554855,24.532418663,24.596912989,24.698592686,24.78697604,24.828337957,24.887889029,24.993997478,25.116892812,25.251551072,25.381538462,25.410037831,25.371187894,25.338895334,25.311778058,25.278436318,25.051530895,24.679747793,24.37237831,24.198870113,24.165447667,24.156388398,24.154179067,24.16303657,24.181326608,24.191253468,24.178118537,24.202138714,24.236630517,24.154794451,23.979591425,23.732923077,23.444519546,23.310436318,23.109185372,23.209261034,23.143959647,22.930895334,22.792363178,22.705240858,22.612923077,22.429831021,22.216453972,21.904070618,21.589972257,21.280807062,20.911172762,20.619087011,20.306824716,20.038537201,19.783717528,19.513482976,19.293034048,19.050411097,18.85132913,18.63340227,18.461972257,18.311263556,18.148660782,17.978784363,17.823424968,17.693276166,17.585160151,17.490703657,17.33547541,17.133750315,17.031213115,17.043944515,17.125588903,17.133891551,17.05132913,16.905099622,16.725407314,16.555662043,16.339117276,16.073493064,15.792383354,15.620499369,15.40496343,15.249119798,15.21138966,15.127344262,14.986340479,14.884297604,14.818653216,14.73675662,14.583828499,14.429649433,14.203762926,13.955399748,13.72934174,13.485901639,13.257220681,13.113674653,12.940348045,12.696625473,12.442522068,12.254920555,12.0769029,11.865271122,11.682360656,11.495313997,11.314431274,11.147752837,10.965306431,10.735757881,10.535808323,10.401139975,10.247092055,10.100822194,9.997205549,9.882078184,9.839697352,9.783868852,9.786249685,9.746370744,9.673412358,9.547026482,9.331651955,9.148428752,8.972428752,8.781215637,8.577957125,8.430870113,8.37074401,8.29208575,8.194421185,8.05430517,7.932257251,7.82347541,7.669356873,7.489442623,7.361311475,7.159293821,7.040201765,7.063394704,6.840121059
8.936423707,9.302416141,9.547662043,9.717588903,9.955510719,10.164388398,10.355430013,10.505825977,10.638436318,10.833190416,11.041583859,11.309185372,11.531147541,11.849614124,12.125891551,12.315450189,12.561957125,12.771006305,12.656655738,12.344988651,12.069477932,11.814809584,11.587248424,11.421730139,11.358547289,11.355783102,11.403843632,11.452327869,11.474663304,11.537018916,11.622960908,11.693962169,11.728807062,11.83976797,12.009997478,12.152403531,12.352020177,12.730199243,12.980327869,13.250491803,13.571813367,13.87754855,14.115157629,14.414385876,14.685931904,14.986360656,15.392766709,15.663092055,15.946895334,16.2063657,16.481452711,16.716388398,16.970905422,17.239344262,17.437498108,17.513513241,17.552635561,17.575213115,17.614375788,17.738663304,17.950517024,18.163349306,18.165861286,18.081361917,17.956872636,17.87842623,18.015546028,18.237588903,18.495021438,18.783092055,18.967223203,18.850834805,18.856575032,18.921947037,18.972721311,18.960746532,19.038375788,19.074068096,19.096978562,19.299591425,19.411551072,19.597609079,19.692650694,19.717215637,19.872070618,20.038496847,20.156630517,20.301245902,20.453810845,20.629578815,20.852499369,21.050411097,21.261629256,21.491762926,21.764691047,22.096837327,22.474754098,22.818340479,23.169977301,23.534708701,23.933972257,24.218774275,24.403611602,24.512464061,24.637003783,24.727172762,24.826330391,24.962007566,25.091399748,25.153089533,25.253356873,25.376030265,25.494789407,25.591303909,25.667470366,25.671626734,25.634471627,25.582769231,25.533750315,25.305160151,24.895263556,24.502718789,24.286809584,24.177210593,24.164751576,24.161150063,24.161331652,24.17027995,24.178935687,24.188943253,24.204822194,24.274522068,24.309094578,24.164781841,23.92992686,23.845074401,23.738027743,23.449815889,23.37325599,23.204388398,23.011732661,22.84881715,22.717760404,22.607656999,22.464312736,22.316943253,22.111525851,21.649503153,21.261709962,20.923732661,20.657321564,20.374557377,20.120151324,19.889947037,19.605155107,19.332822194,19.057008827,18.819006305,18.609482976,18.465392182,18.338522068,18.199667087,18.063889029,17.979692308,17.858007566,17.760675914,17.629609079,17.379662043,17.205155107,17.161583859,17.264171501,17.299843632,17.209493064,17.052358134,16.86406053,16.679717528,16.496968474,16.321150063,16.110194199,15.875197982,15.679203026,15.478113493,15.441250946,15.393412358,15.285679697,15.19065826,15.127959647,15.043046658,14.880393443,14.728494325,14.59252459,14.369583859,14.172337957,13.945301387,13.687253468,13.418945776,13.23042623,13.052499369,12.765397226,12.498542245,12.284519546,12.116549811,11.953321564,11.803379571,11.646749054,11.489452711,11.325175284,11.119172762,10.888080706,10.633896595,10.384706179,10.084247163,9.80274401,9.572287516,9.340126103,9.146885246,9.123510719,9.273775536,9.43608575,9.484237074,9.404055485,9.196065574,8.999283733,8.81401261,8.608151324,8.446880202,8.278264817,8.18896343,8.12764691,8.043662043,7.897795712,7.796418663,7.698037831,7.529755359,7.37576797,7.26172005,7.13401261,7.010098361,6.938865069,6.789235813
8.960675914,9.325588903,9.570602774,9.756035309,9.96607314,10.161604035,10.356680958,10.497472888,10.633563682,10.821165195,11.038284994,11.317558638,11.546824716,11.858239596,12.136343001,12.340337957,12.590718789,12.862466583,12.906945776,12.636156368,12.329805801,12.115228247,11.928958386,11.741992434,11.547016393,11.440807062,11.477145019,11.535394704,11.594612863,11.662769231,11.757104666,11.834965952,11.86972005,11.870698613,11.968726356,12.138330391,12.307803279,12.652852459,12.926799496,13.159556116,13.440453972,13.748519546,14.007919294,14.281957125,14.508660782,14.875490542,15.283430013,15.569069357,15.840262295,16.17652459,16.496,16.839324086,17.129079445,17.441735183,17.742991173,17.936030265,18.022466583,18.060247163,18.055778058,18.093669609,18.239364439,18.451359395,18.546300126,18.508035309,18.362290038,18.273765448,18.303838588,18.406194199,18.804075662,19.187076923,19.235197982,19.093871375,19.12940227,19.18406053,19.24531652,19.213568726,19.21138966,19.270284994,19.20829256,19.422648172,19.599445145,19.761200504,19.86458512,19.908418663,19.897604035,20.034713745,20.21757377,20.382375788,20.524640605,20.704453972,20.905482976,21.106249685,21.296575032,21.519838588,21.792645649,22.092186633,22.400262295,22.728,23.042713745,23.433220681,23.872040353,24.191132409,24.421800757,24.557175284,24.679868852,24.826915511,24.94732913,25.106370744,25.346058008,25.498865069,25.527394704,25.637508197,25.745230769,25.823515763,25.863061791,25.865311475,25.853407314,25.813134931,25.791324086,25.472504414,25.084166456,24.689805801,24.439515763,24.253175284,24.180216898,24.17132913,24.166587642,24.168151324,24.170532156,24.172923077,24.177896595,24.250622951,24.377704918,24.327606557,24.149588903,24.094547289,24.02569483,23.830395965,23.581659521,23.37097604,23.153160151,22.943081967,22.771954603,22.687878941,22.558769231,22.420226986,22.004035309,21.610754098,21.248706179,20.921039092,20.651379571,20.365952081,20.065583859,19.791213115,19.528564943,19.325013871,19.181003783,19.010290038,18.825180328,18.693467844,18.534143758,18.368050441,18.201139975,18.084791929,17.962572509,17.823697352,17.658572509,17.497735183,17.417412358,17.400958386,17.407253468,17.305079445,17.157356873,16.951435057,16.739359395,16.549689786,16.372781841,16.226471627,16.038860025,15.826814628,15.693124842,15.63386633,15.593936948,15.519001261,15.440211854,15.338259773,15.318506936,15.199404792,15.010582598,14.854214376,14.717629256,14.576978562,14.391313997,14.160141236,13.870517024,13.561462799,13.348943253,13.154330391,12.863313997,12.585947037,12.355984868,12.161412358,11.997871375,11.860802018,11.753967213,11.627904161,11.47912232,11.308428752,11.097462799,10.828237074,10.594481715,10.34972005,10.040625473,9.6607314,9.267813367,8.790234552,8.542517024,8.597699874,8.73132913,8.873008827,8.975798235,8.958345523,8.879203026,8.693467844,8.465240858,8.323228247,8.148005044,8.007152585,7.922068096,7.858582598,7.754592686,7.635258512,7.507924338,7.3712686,7.233230769,7.113129887,6.999979823,6.914996217,6.78779319,6.661034048
8.98020681,9.324711223,9.576010088,9.75474401,9.943051702,10.151878941,10.340065574,10.480201765,10.630738966,10.813820933,11.029064313,11.314118537,11.543172762,11.803339218,12.117387137,12.342184111,12.587934426,12.861477932,13.046678436,12.938421185,12.669266078,12.433301387,12.198819672,12.003470366,11.834128625,11.65430517,11.567344262,11.609240858,11.668176545,11.740348045,11.822627995,11.903586381,11.960050441,11.973891551,11.994168979,12.134103405,12.302870113,12.567656999,12.824726356,13.0367314,13.302940731,13.556055485,13.826168979,14.027732661,14.303223203,14.716045397,15.082290038,15.43445145,15.701911728,16.022849937,16.346945776,16.720575032,17.085790668,17.440847415,17.753684741,17.997457755,18.192191677,18.366284994,18.471011349,18.542870113,18.685034048,18.902819672,19.043137453,19.031929382,18.881069357,18.793785624,18.788923077,18.796660782,18.996095839,19.450168979,19.55924338,19.38370744,19.430295082,19.462113493,19.464635561,19.442017654,19.42119546,19.447404792,19.391293821,19.463081967,19.718728878,19.88601261,19.993735183,20.069155107,20.088030265,20.158789407,20.256736444,20.41547541,20.584020177,20.774688525,20.964065574,21.142244641,21.34259773,21.563006305,21.808716267,22.076993695,22.331732661,22.641472888,22.958284994,23.356156368,23.797235813,24.16251198,24.440040353,24.626552333,24.778350567,24.942214376,25.106128625,25.285064313,25.553674653,25.773185372,25.829679697,25.866290038,25.921674653,25.879919294,25.850209332,25.834098361,25.837891551,25.84104918,25.847566204,25.625382093,25.228559899,24.857715006,24.604933165,24.407253468,24.273018916,24.214496847,24.190638083,24.184141236,24.179137453,24.179954603,24.180852459,24.222587642,24.374496847,24.48081715,24.361291299,24.312625473,24.222244641,24.104736444,23.904040353,23.563692308,23.340680958,23.138027743,22.937906683,22.765084489,22.509245902,22.190143758,21.85021942,21.495576293,21.174093317,20.852176545,20.577503153,20.299641866,19.9983657,19.7903657,19.647616646,19.499450189,19.349175284,19.206688525,19.008686003,18.77903657,18.572025221,18.364519546,18.226572509,18.135989912,18.029820933,17.907127364,17.780872636,17.649593947,17.530259773,17.428116015,17.302668348,17.177493064,16.996953342,16.781659521,16.578501892,16.384635561,16.211480454,16.111727617,15.999213115,15.926486759,15.915187894,15.86429256,15.758991173,15.663233291,15.593795712,15.512413619,15.450885246,15.298350567,15.13208575,14.992897856,14.842320303,14.728675914,14.534698613,14.260711223,13.975213115,13.675107188,13.424867591,13.222638083,12.963450189,12.645921816,12.424726356,12.203208071,12.023344262,11.835359395,11.716529634,11.603137453,11.477185372,11.360443884,11.240847415,11.037689786,10.833563682,10.571218159,10.209392182,9.810199243,9.395026482,8.921936948,8.504131148,8.330340479,8.279384615,8.317417402,8.462436318,8.593785624,8.689139975,8.619551072,8.394905422,8.207364439,8.05524338,7.919001261,7.809321564,7.712635561,7.577422446,7.485578815,7.398638083,7.276933165,7.1216343,6.996983607,6.869659521,6.747662043,6.596872636,6.417271122
9.069003783,9.344988651,9.57623203,9.751546028,9.939530895,10.147409836,10.329775536,10.459873897,10.62242623,10.799283733,11.012802018,11.299208071,11.516398487,11.724247163,12.054698613,12.318113493,12.54954855,12.811894073,13.038446406,13.118517024,12.979278689,12.754269861,12.537533417,12.321210593,12.115974779,11.945775536,11.775717528,11.733861286,11.772247163,11.82318285,11.874905422,11.949760404,12.018602774,12.06861034,12.093659521,12.135061791,12.252580076,12.455253468,12.664907945,12.872413619,13.108075662,13.330320303,13.561361917,13.837952081,14.299530895,14.646335435,14.9727314,15.289472888,15.603480454,15.955228247,16.288998739,16.633291299,17.029649433,17.354370744,17.541619168,17.750527112,17.931843632,18.13827995,18.350466583,18.577553594,18.817139975,19.049836066,19.277417402,19.360635561,19.315308953,19.330138714,19.313059269,19.281846154,19.320575032,19.524953342,19.897291299,19.720978562,19.742728878,19.754370744,19.731773014,19.694708701,19.654234552,19.654466583,19.667742749,19.582476671,19.706269861,19.901528373,20.052680958,20.162572509,20.237609079,20.306905422,20.386542245,20.463909206,20.61874401,20.812509458,20.98896343,21.157629256,21.373124842,21.587319042,21.818138714,22.074350567,22.352383354,22.62061034,22.939551072,23.310214376,23.689624212,24.072282472,24.371399748,24.700105927,24.937825977,25.124529634,25.313543506,25.52741488,25.757296343,25.965941992,26.015031526,25.875500631,25.66651198,25.544373266,25.500428752,25.495828499,25.492469105,25.504645649,25.540660782,25.59281715,25.385755359,25.065604035,24.794552333,24.55784111,24.396247163,24.305462799,24.260529634,24.230254729,24.222567465,24.218653216,24.234411097,24.304131148,24.382678436,24.530027743,24.561442623,24.495011349,24.384373266,24.285941992,24.137654477,23.765669609,23.529240858,23.324872636,23.039404792,22.709679697,22.392736444,22.092842371,21.788892812,21.462668348,21.149962169,20.827662043,20.557629256,20.334708701,20.143021438,19.941104666,19.742254729,19.539692308,19.358345523,19.181407314,18.99030517,18.746360656,18.511788146,18.39976797,18.37687768,18.275924338,18.11357377,17.967102144,17.82370744,17.663505675,17.519162673,17.374607818,17.2176343,17.029498108,16.860216898,16.690300126,16.544897856,16.425372005,16.364741488,16.282643127,16.184514502,16.113916772,16.083894073,16.031737705,15.93570744,15.805518285,15.707218159,15.621457755,15.516559899,15.355944515,15.19089029,15.047899117,14.926355612,14.833321564,14.658794451,14.345825977,14.041018916,13.739651955,13.473129887,13.250027743,12.975081967,12.711051702,12.414113493,12.189558638,12.013790668,11.846870113,11.754824716,11.680221942,11.57985372,11.420580076,11.293346784,11.145482976,10.902284994,10.631001261,10.255495586,9.81681715,9.40192686,9.079556116,8.702395965,8.366738966,8.039737705,7.80992686,7.960443884,8.076489281,8.238174023,8.341205549,8.272171501,8.125770492,7.984080706,7.872332913,7.783485498,7.649947037,7.450552333,7.322572509,7.232262295,7.129018916,7.022002522,6.905977301,6.681472888,6.523107188,6.398284994,6.315117276
9.215778058,9.408665826,9.599223203,9.755974779,9.939167718,10.133639344,10.319525851,10.445407314,10.612993695,10.77991425,10.980136192,11.258723834,11.473715006,11.674300126,11.983374527,12.269831021,12.497624212,12.737795712,12.968383354,13.149155107,13.259984868,13.04770744,12.818269861,12.623747793,12.421377049,12.228126103,12.051762926,11.956166456,11.96969483,11.987460277,12.004660782,12.02586633,12.077972257,12.14738966,12.199495586,12.22931652,12.249805801,12.340428752,12.498733922,12.697533417,12.856564943,13.139520807,13.503485498,13.849220681,14.234017654,14.688100883,15.114784363,15.408100883,15.637235813,15.934567465,16.287858764,16.619117276,16.902436318,17.096554855,17.279889029,17.45623203,17.640605296,17.86651198,18.062063052,18.300549811,18.62475662,18.911112232,19.192070618,19.483218159,19.652398487,19.734395965,19.768645649,19.72601261,19.766698613,19.804559899,20.126254729,20.085225725,20.052943253,20.076257251,20.031112232,19.983233291,19.911737705,19.902920555,19.914703657,19.859692308,19.785745271,19.874784363,20.060973518,20.206345523,20.324136192,20.430143758,20.507218159,20.578723834,20.692136192,20.841593947,21.027399748,21.223878941,21.436005044,21.636035309,21.850078184,22.11095082,22.400726356,22.672332913,22.94919546,23.249825977,23.582940731,23.931026482,24.263899117,24.654436318,25.039263556,25.345977301,25.561755359,25.761624212,25.969452711,26.099530895,25.887233291,25.5903657,25.486617907,25.462577554,25.459046658,25.455778058,25.450370744,25.448887768,25.451218159,25.456766709,25.450562421,25.255556116,24.935142497,24.695808323,24.547006305,24.447102144,24.381457755,24.326638083,24.295061791,24.28835309,24.323319042,24.398093317,24.470900378,24.541699874,24.628176545,24.501165195,24.295283733,24.152050441,23.980479193,23.802552333,23.575687264,23.310860025,23.004116015,22.687384615,22.343515763,22.02598739,21.734607818,21.423778058,21.157820933,20.898612863,20.655172762,20.412691047,20.15993947,19.931147541,19.720272383,19.494395965,19.291419924,19.138229508,18.993311475,18.786501892,18.629538462,18.555157629,18.478274905,18.376090794,18.211581337,18.067692308,17.941427491,17.799051702,17.651702396,17.49179319,17.318042875,17.108337957,16.939591425,16.80280454,16.743263556,16.645508197,16.571046658,16.466996217,16.377190416,16.316015132,16.229457755,16.138017654,16.026754098,15.891752837,15.761261034,15.64682976,15.524307692,15.353936948,15.177210593,15.056534678,14.95468348,14.856242119,14.678940731,14.388015132,14.082239596,13.771470366,13.48852459,13.243197982,12.956549811,12.722996217,12.45991425,12.253366961,12.12525599,11.988388398,11.851379571,11.706885246,11.544564943,11.364549811,11.195359395,11.053699874,10.837770492,10.551253468,10.200605296,9.782678436,9.473725095,9.232635561,8.898128625,8.600433796,8.194098361,7.796156368,7.531056747,7.478537201,7.675722573,8.002854981,8.069124842,8.030567465,7.976998739,7.915419924,7.832655738,7.671586381,7.489936948,7.29798739,7.13524338,6.994612863,6.847596469,6.681160151,6.544514502,6.457422446,6.372267339,6.317054224
9.318355612,9.475238335,9.624948298,9.757699874,9.926103405,10.107006305,10.30178058,10.426572509,10.582607818,10.75304918,10.946037831,11.192474149,11.42178058,11.617856242,11.899571248,12.205175284,12.43882976,12.660529634,12.890663304,13.119001261,13.362945776,13.351515763,13.059762926,12.871354351,12.694093317,12.48437831,12.313604035,12.237699874,12.225684741,12.218996217,12.198547289,12.181962169,12.203510719,12.275863808,12.362935687,12.406678436,12.417967213,12.420327869,12.451823455,12.583071879,12.821034048,13.139974779,13.492045397,13.852065574,14.160615385,14.645669609,15.196307692,15.500307692,15.685306431,15.898905422,16.204771753,16.476216898,16.654446406,16.76630517,16.912534678,17.14732913,17.361301387,17.544322825,17.779440101,18.04764691,18.430204288,18.799495586,19.113936948,19.463112232,19.806809584,20.047828499,20.187994956,20.222143758,20.30668348,20.407223203,20.517397226,20.473825977,20.400867591,20.418481715,20.348348045,20.284448928,20.247798235,20.202481715,20.142052963,20.068721311,20.011278689,20.00227995,20.110083228,20.248675914,20.384373266,20.513795712,20.616534678,20.733205549,20.859944515,20.946814628,21.057160151,21.236005044,21.454506936,21.663858764,21.89932913,22.144675914,22.421679697,22.68904918,22.951061791,23.25465826,23.539218159,23.850027743,24.196802018,24.551213115,24.92572005,25.338138714,25.719909206,25.969755359,26.168786885,26.107359395,25.789245902,25.518648172,25.461356873,25.455848676,25.451187894,25.446728878,25.440675914,25.431203026,25.425815889,25.412005044,25.374900378,25.261518285,25.066663304,24.919778058,24.762653216,24.647909206,24.577825977,24.51013367,24.460791929,24.464534678,24.496595208,24.556791929,24.597952081,24.567586381,24.499672131,24.44157377,24.229669609,23.96829256,23.781659521,23.61027995,23.440675914,23.252005044,22.946935687,22.627954603,22.294103405,21.986300126,21.694042875,21.382506936,21.140448928,20.880504414,20.623313997,20.379197982,20.153069357,19.954128625,19.755924338,19.573921816,19.421104666,19.308095839,19.154673392,18.961513241,18.820348045,18.710284994,18.591677175,18.481069357,18.363944515,18.215324086,18.065210593,17.914925599,17.752575032,17.575263556,17.430395965,17.217331652,17.078063052,17.022274905,16.934254729,16.855021438,16.770602774,16.650330391,16.542759142,16.466885246,16.3390971,16.200010088,16.079334174,15.918688525,15.761795712,15.621578815,15.469861286,15.314945776,15.158446406,15.056867591,14.96578058,14.85512232,14.666986129,14.348781841,14.051752837,13.777836066,13.473997478,13.22481715,13.017462799,12.847001261,12.620872636,12.442764187,12.33214628,12.147238335,11.900993695,11.714925599,11.500297604,11.28823203,11.101457755,10.916802018,10.774153846,10.464423707,10.114986129,9.774506936,9.499319042,9.260751576,8.968897856,8.687878941,8.378814628,8.01442623,7.59497604,7.22779319,7.145321564,7.492832282,7.620398487,7.643571248,7.760100883,7.808494325,7.744121059,7.628600252,7.515278689,7.361261034,7.220469105,7.048958386,6.877941992,6.684337957,6.540237074,6.492015132,6.465089533,6.450522068
9.393755359,9.525054224,9.641957125,9.760978562,9.904837327,10.06896343,10.273412358,10.399899117,10.53687768,10.711868852,10.910385876,11.12420681,11.366163934,11.557276166,11.789155107,12.118224464,12.372761665,12.596489281,12.816433796,13.072706179,13.365306431,13.54756116,13.394955864,13.103253468,12.899651955,12.719041614,12.575031526,12.513876419,12.473563682,12.439233291,12.444741488,12.485588903,12.51970744,12.547994956,12.567071879,12.581810845,12.601604035,12.62627995,12.620247163,12.602501892,12.695979823,13.006769231,13.339450189,13.731470366,14.071324086,14.531823455,15.114461538,15.462567465,15.647878941,15.781619168,15.956005044,16.133064313,16.270910467,16.473967213,16.650058008,16.861669609,17.031233291,17.151788146,17.428116015,17.843984868,18.224131148,18.595369483,18.914834805,19.263969735,19.598698613,19.933336696,20.286809584,20.566194199,20.746168979,20.900126103,21.008161412,20.944312736,20.834047919,20.781054224,20.679313997,20.616050441,20.559223203,20.464020177,20.378633039,20.277750315,20.208221942,20.169462799,20.210996217,20.314501892,20.457825977,20.603601513,20.738653216,20.861084489,20.989477932,21.110355612,21.227662043,21.376,21.520262295,21.722491803,21.943112232,22.167152585,22.432363178,22.688080706,22.978330391,23.288090794,23.55398739,23.860418663,24.196590164,24.512504414,24.850290038,25.199374527,25.62680454,26.029891551,26.268781841,26.109286255,25.797851198,25.540993695,25.461800757,25.454557377,25.449493064,25.44408575,25.438779319,25.432393443,25.423899117,25.416181589,25.40023203,25.349962169,25.2689029,25.142436318,24.985210593,24.902052963,24.848998739,24.744484237,24.718174023,24.713271122,24.727152585,24.78510971,24.779944515,24.593815889,24.429296343,24.26627995,24.061831021,23.855162673,23.61606053,23.385765448,23.212287516,23.01845145,22.844620429,22.553856242,22.214728878,21.926506936,21.654970996,21.376373266,21.128736444,20.877034048,20.699117276,20.504302648,20.306673392,20.144272383,19.956882724,19.768796974,19.608080706,19.452035309,19.325134931,19.19369483,19.022668348,18.892771753,18.764569987,18.637861286,18.499419924,18.319213115,18.123379571,17.943445145,17.77243884,17.601785624,17.448807062,17.277881463,17.170199243,17.12642623,17.060802018,16.94178058,16.817805801,16.696766709,16.576211854,16.467470366,16.343959647,16.210915511,16.0896343,15.932721311,15.754481715,15.558174023,15.403571248,15.274653216,15.153593947,15.059530895,14.972872636,14.857018916,14.699712484,14.411177806,14.106844893,13.820428752,13.573931904,13.339641866,13.1696343,13.024211854,12.790738966,12.653921816,12.531773014,12.265331652,11.983303909,11.781104666,11.544070618,11.268701135,11.039848676,10.820882724,10.672554855,10.376464061,10.079656999,9.833664565,9.496887768,9.159142497,8.824716267,8.555742749,8.19445145,7.803500631,7.455021438,7.185331652,6.944625473,6.931167718,7.010179067,7.139248424,7.2816343,7.424736444,7.410209332,7.411450189,7.413709962,7.365074401,7.278809584,7.134416141,6.980095839,6.808948298,6.6303657,6.599989912,6.585150063,6.543273644
9.458501892,9.560010088,9.656575032,9.770875158,9.891863808,10.03562169,10.241856242,10.381972257,10.509094578,10.674532156,10.868973518,11.064070618,11.308317781,11.488181589,11.70423203,12.01541488,12.294234552,12.531026482,12.74318285,13.021790668,13.336595208,13.641261034,13.650320303,13.406466583,13.119505675,12.948176545,12.895203026,12.872121059,12.828529634,12.767757881,12.759394704,12.759677175,12.754209332,12.752020177,12.767172762,12.776796974,12.810501892,12.860953342,12.867137453,12.833684741,12.777472888,12.848171501,13.143556116,13.517770492,13.991818411,14.39065826,14.881331652,15.314673392,15.512030265,15.563087011,15.628872636,15.751788146,15.908923077,16.079263556,16.323934426,16.517276166,16.663929382,16.966759142,17.330310214,17.673785624,18.001745271,18.240211854,18.556509458,18.917064313,19.209735183,19.50504918,19.919919294,20.316469105,20.695969735,21.002844893,21.275540984,21.435369483,21.377704918,21.180983607,21.04712232,20.968373266,20.91141488,20.734799496,20.610653216,20.524196721,20.422587642,20.324539723,20.350496847,20.415505675,20.524882724,20.672786885,20.834168979,20.968655738,21.110446406,21.237296343,21.409099622,21.595651955,21.705503153,21.823404792,22.019339218,22.248322825,22.494789407,22.726002522,22.994965952,23.291672131,23.566274905,23.880403531,24.206688525,24.515409836,24.864998739,25.168413619,25.530330391,25.907813367,26.227197982,26.155803279,25.834290038,25.574002522,25.469689786,25.460237074,25.455566204,25.451026482,25.44992686,25.449876419,25.44835309,25.447424968,25.447576293,25.451076923,25.432020177,25.340116015,25.246385876,25.190032787,25.140660782,25.086506936,25.022406053,24.997851198,24.976141236,24.966325347,24.854254729,24.628781841,24.433704918,24.180469105,24.014678436,23.794945776,23.518214376,23.27317024,23.009755359,22.773215637,22.601593947,22.417301387,22.172862547,21.884509458,21.62510971,21.384766709,21.200645649,21.045891551,20.905997478,20.743828499,20.528393443,20.328595208,20.157336696,19.997165195,19.816776797,19.662738966,19.526567465,19.399868852,19.252075662,19.10289029,18.939803279,18.77132913,18.602350567,18.380489281,18.161079445,17.957669609,17.77658512,17.620751576,17.45045145,17.240181589,17.089725095,17.035823455,16.986068096,16.870819672,16.751505675,16.642875158,16.527455233,16.411319042,16.28689029,16.166506936,16.052529634,15.907540984,15.71503657,15.548388398,15.406930643,15.274794451,15.159041614,15.056332913,14.958860025,14.8430971,14.706965952,14.453800757,14.155087011,13.918063052,13.687324086,13.502688525,13.32221942,13.17407314,13.004479193,12.863566204,12.700802018,12.385018916,12.137210593,11.891218159,11.614900378,11.396317781,11.192746532,10.887112232,10.645276166,10.372226986,10.102174023,9.898068096,9.686920555,9.447303909,9.091339218,8.703495586,8.330229508,7.876216898,7.563994956,7.297452711,6.956600252,6.681311475,6.660337957,6.810965952,6.895495586,6.92969483,6.847455233,6.959313997,7.064010088,7.163419924,7.219379571,7.139530895,6.989790668,6.816403531,6.703213115,6.665614124,6.639334174,6.601896595
9.520070618,9.593967213,9.677800757,9.776928121,9.886940731,10.021790668,10.221790668,10.372791929,10.500509458,10.656272383,10.833069357,11.01956116,11.235924338,11.417210593,11.633795712,11.919566204,12.205679697,12.456121059,12.675883985,12.955087011,13.285387137,13.61681715,13.800282472,13.663616646,13.396368222,13.214728878,13.17208575,13.145513241,13.11095082,13.055889029,13.030617907,13.026582598,13.021629256,13.035359395,13.07398739,13.084388398,13.085750315,13.094355612,13.098058008,13.079727617,13.042542245,13.021982346,13.070456494,13.358627995,13.877972257,14.214143758,14.579177806,15.029336696,15.286547289,15.252136192,15.354471627,15.452055485,15.602673392,15.793836066,16.005619168,16.195087011,16.510870113,16.893145019,17.210481715,17.510880202,17.735989912,17.914047919,18.204923077,18.576302648,18.799586381,19.055364439,19.457210593,19.891177806,20.473291299,20.897452711,21.276237074,21.569281211,21.737896595,21.602411097,21.439616646,21.325124842,21.1950971,21.019167718,20.884509458,20.796842371,20.66201261,20.506643127,20.493881463,20.540741488,20.626148802,20.752655738,20.876842371,21.018128625,21.160928121,21.30341488,21.486042875,21.685800757,21.836933165,21.928514502,22.075924338,22.308317781,22.571197982,22.821165195,23.082320303,23.342375788,23.595520807,23.895011349,24.189568726,24.512595208,24.851490542,25.156973518,25.509578815,25.836459016,26.177825977,26.226320303,25.914441362,25.658895334,25.514653216,25.476388398,25.463697352,25.459076923,25.462920555,25.468337957,25.480928121,25.49015889,25.506491803,25.521543506,25.537977301,25.55421942,25.561129887,25.508337957,25.440100883,25.383081967,25.298128625,25.22756116,25.141891551,25.011066835,24.845810845,24.677619168,24.50814628,24.322229508,24.117508197,23.949659521,23.721684741,23.418229508,23.030718789,22.633089533,22.402047919,22.187076923,22.004892812,21.775061791,21.523117276,21.325175284,21.173508197,21.051944515,20.94615889,20.848,20.719102144,20.522794451,20.34843884,20.177462799,19.994885246,19.79778058,19.629377049,19.463525851,19.309609079,19.170693569,18.997649433,18.817523329,18.649351828,18.443319042,18.250945776,18.049351828,17.851107188,17.672393443,17.467349306,17.257815889,17.116126103,16.941629256,16.821558638,16.718002522,16.603359395,16.500812106,16.403369483,16.311878941,16.213185372,16.112413619,16.014749054,15.886184111,15.696514502,15.497563682,15.342143758,15.251863808,15.149407314,15.030204288,14.903808323,14.778189155,14.657493064,14.444499369,14.207404792,13.950093317,13.722844893,13.570653216,13.409593947,13.22341488,13.069245902,12.943889029,12.820267339,12.543112232,12.256131148,12.019298865,11.757397226,11.534728878,11.29302396,10.985684741,10.719848676,10.443964691,10.191838588,10.013861286,9.856302648,9.67089029,9.398395965,8.929472888,8.524418663,8.196226986,7.815949559,7.433785624,7.008706179,6.693296343,6.46452459,6.473846154,6.490239596,6.509810845,6.431102144,6.478900378,6.592040353,6.795278689,6.950416141,6.917679697,6.794290038,6.695031526,6.637588903,6.613013871,6.591959647,6.578723834
9.568181589,9.637326608,9.712403531,9.798032787,9.893982346,10.020691047,10.205528373,10.355843632,10.483460277,10.645205549,10.812156368,10.987530895,11.165387137,11.353250946,11.565709962,11.830789407,12.116630517,12.367515763,12.602128625,12.870738966,13.213407314,13.527374527,13.810088272,13.859157629,13.716307692,13.561543506,13.485528373,13.440363178,13.398607818,13.356368222,13.358385876,13.381397226,13.380741488,13.396368222,13.409119798,13.39725599,13.384433796,13.387540984,13.39719546,13.406274905,13.415687264,13.420479193,13.389891551,13.358446406,13.614254729,13.886537201,14.228943253,14.558416141,14.876469105,14.964761665,15.110688525,15.151303909,15.366022699,15.590234552,15.861407314,16.167899117,16.469235813,16.715984868,16.980751576,17.237498108,17.427581337,17.646083228,17.930612863,18.284832282,18.571288777,18.890290038,19.27474401,19.753936948,20.280605296,20.717205549,21.121291299,21.46978058,21.712272383,21.873533417,21.836418663,21.72274401,21.509366961,21.263495586,21.163228247,21.062103405,20.909820933,20.75947541,20.674390921,20.679021438,20.73570744,20.855354351,20.992625473,21.112191677,21.218501892,21.349861286,21.520887768,21.705200504,21.881846154,22.024736444,22.188529634,22.41880454,22.643974779,22.895354351,23.173709962,23.426572509,23.685346784,23.97319546,24.256887768,24.556226986,24.885114754,25.168897856,25.515046658,25.834037831,26.149619168,26.282481715,25.993775536,25.74592686,25.579631778,25.530068096,25.48695082,25.481775536,25.50289029,25.519868852,25.539641866,25.555409836,25.571530895,25.58651198,25.62645145,25.717901639,25.839717528,25.841977301,25.708257251,25.576675914,25.439001261,25.287556116,25.119283733,24.94423203,24.752020177,24.5552686,24.351919294,24.164045397,23.954058008,23.76332913,23.633684741,23.453044136,23.182617907,22.721029004,22.327798235,22.022607818,21.753704918,21.514360656,21.290350567,21.057997478,20.856211854,20.730643127,20.645750315,20.591223203,20.517286255,20.44087768,20.326577554,20.176716267,19.979490542,19.737775536,19.517286255,19.354491803,19.199495586,19.046668348,18.90843884,18.762582598,18.615949559,18.447233291,18.281452711,18.103808323,17.91287768,17.751192938,17.553018916,17.357730139,17.18762169,17.003147541,16.855455233,16.723944515,16.592776797,16.452701135,16.290673392,16.186824716,16.116448928,16.03147541,15.951112232,15.847687264,15.702486759,15.513412358,15.32940227,15.200151324,15.062920555,14.875722573,14.748055485,14.606607818,14.500075662,14.365669609,14.169674653,13.943889029,13.718678436,13.557276166,13.391727617,13.136,12.930461538,12.784776797,12.651480454,12.430648172,12.259692308,12.099873897,11.840252207,11.589881463,11.371813367,11.088151324,10.78954855,10.534839849,10.311374527,10.102204288,9.910870113,9.750759142,9.532005044,9.076569987,8.64461034,8.354058008,7.960464061,7.521523329,7.144736444,6.846527112,6.543818411,6.316186633,6.212600252,6.176474149,6.130784363,6.1809029,6.293629256,6.424383354,6.547137453,6.556156368,6.489482976,6.417876419,6.415878941,6.403732661,6.36035309,6.347490542
9.610179067,9.688988651,9.751354351,9.832010088,9.923934426,10.038930643,10.194229508,10.342557377,10.470466583,10.635339218,10.796398487,10.962592686,11.122088272,11.29932913,11.499409836,11.758638083,12.044388398,12.279394704,12.530602774,12.781084489,13.127899117,13.43591425,13.739248424,13.948156368,13.992968474,13.903556116,13.829306431,13.78423203,13.741306431,13.711384615,13.735081967,13.735606557,13.710587642,13.736857503,13.746259773,13.713432535,13.711717528,13.729765448,13.747530895,13.811147541,13.86534174,13.878577554,13.842078184,13.759566204,13.724247163,13.805377049,13.989407314,14.178592686,14.367546028,14.55859773,14.737876419,14.949286255,15.293911728,15.608050441,15.835187894,16.034532156,16.240221942,16.492105927,16.72198739,16.955399748,17.173528373,17.422446406,17.704655738,18.080645649,18.451510719,18.883470366,19.309810845,19.771581337,20.177775536,20.563510719,20.898784363,21.241493064,21.543697352,21.901124842,22.092116015,22.041099622,21.794088272,21.538098361,21.441563682,21.352010088,21.20986633,21.05021942,20.909649433,20.868701135,20.89074401,20.939571248,21.063959647,21.197629256,21.318991173,21.447838588,21.600373266,21.752766709,21.92718285,22.099551072,22.283076923,22.48525599,22.697916772,22.920181589,23.179197982,23.431717528,23.707167718,24.003672131,24.295626734,24.578037831,24.905735183,25.224484237,25.593200504,25.888887768,26.158527112,26.292196721,26.069508197,25.808837327,25.634824716,25.571278689,25.525619168,25.535001261,25.562118537,25.584312736,25.601906683,25.622728878,25.65635309,25.689361917,25.765669609,25.899591425,26.007495586,25.957588903,25.77623203,25.570643127,25.390446406,25.208786885,25.024221942,24.847515763,24.661639344,24.381245902,24.086052963,23.927969735,23.710113493,23.516549811,23.360575032,23.26674401,23.104554855,22.786612863,22.440837327,22.024464061,21.704110971,21.481422446,21.242996217,21.013286255,20.806960908,20.626875158,20.425513241,20.254194199,20.170138714,20.143263556,20.051066835,19.976807062,19.871233291,19.658290038,19.433361917,19.236136192,19.040191677,18.880776797,18.726295082,18.598456494,18.494254729,18.36823203,18.222537201,18.064655738,17.904857503,17.78259773,17.653851198,17.492196721,17.275339218,17.051944515,16.8590971,16.674925599,16.528686003,16.40420681,16.25407314,16.072595208,15.923409836,15.877901639,15.817503153,15.734981084,15.608343001,15.463313997,15.341518285,15.236358134,15.112948298,14.933094578,14.797326608,14.637205549,14.438406053,14.266562421,14.074592686,13.903798235,13.715197982,13.51661034,13.292539723,13.071717528,12.775818411,12.530340479,12.35176797,12.174910467,12.06925599,11.984191677,11.795742749,11.5823657,11.400443884,11.159717528,10.822083228,10.591576293,10.325508197,10.152544767,9.984918033,9.799435057,9.541709962,9.028045397,8.783404792,8.582042875,8.178340479,7.701104666,7.36274401,7.100822194,6.756509458,6.465563682,6.224403531,6.023808323,5.871132409,5.86265826,5.946491803,6.088938209,6.196297604,6.224151324,6.19176797,6.105462799,6.049301387,6.034643127,5.97319546,5.987177806
9.629699874,9.730532156,9.801614124,9.883157629,9.979187894,10.081321564,10.203682219,10.335011349,10.456383354,10.609321564,10.771944515,10.940358134,11.097220681,11.260912989,11.446093317,11.701800757,11.988489281,12.214759142,12.463788146,12.711566204,13.045699874,13.352161412,13.64764691,13.957538462,14.199586381,14.264040353,14.252549811,14.209190416,14.152615385,14.095798235,14.100348045,14.109114754,14.096665826,14.110900378,14.09570744,14.029770492,14.047778058,14.082703657,14.099026482,14.201361917,14.31252459,14.387319042,14.309709962,14.200938209,14.228055485,14.265745271,14.276005044,14.2847314,14.368786885,14.505493064,14.651702396,14.813054224,15.044176545,15.344807062,15.584040353,15.788196721,16.021377049,16.304302648,16.578875158,16.834643127,17.119566204,17.395308953,17.735778058,18.317730139,18.691672131,19.090663304,19.399253468,19.785563682,20.101851198,20.406738966,20.713523329,21.076459016,21.489432535,21.864312736,22.20443884,22.347722573,22.099248424,21.855001261,21.724055485,21.644711223,21.508055485,21.303061791,21.12998739,21.034582598,21.040504414,21.063313997,21.145997478,21.282340479,21.396872636,21.540580076,21.686466583,21.818370744,21.982345523,22.182779319,22.393059269,22.560131148,22.771016393,22.992040353,23.224665826,23.457039092,23.712433796,24.014295082,24.288373266,24.564822194,24.885931904,25.189820933,25.526678436,25.801190416,26.084812106,26.2750971,26.15310971,25.892448928,25.690360656,25.598022699,25.564721311,25.588388398,25.623061791,25.66984111,25.709952081,25.744201765,25.811591425,25.889614124,25.979631778,26.084126103,26.037276166,25.851581337,25.638860025,25.459530895,25.252872636,25.049018916,24.879889029,24.724559899,24.539056747,24.218401009,23.935656999,23.640443884,23.469074401,23.333760404,23.141104666,22.971208071,22.871596469,22.702234552,22.458189155,22.13938966,21.773568726,21.473281211,21.168161412,20.866733922,20.713906683,20.620993695,20.506965952,20.248978562,19.977593947,19.863142497,19.762612863,19.697321564,19.646779319,19.536423707,19.372388398,19.175909206,18.98020681,18.823576293,18.694456494,18.554996217,18.410703657,18.268126103,18.105281211,17.950174023,17.825513241,17.73372005,17.651298865,17.550325347,17.328423707,17.045962169,16.808474149,16.607455233,16.450592686,16.301467844,16.148105927,16.003873897,15.850068096,15.743324086,15.644549811,15.542617907,15.46931652,15.376191677,15.298794451,15.201785624,15.119364439,14.991041614,14.860802018,14.704675914,14.484580076,14.280776797,14.09851198,13.934799496,13.772035309,13.570168979,13.34230517,13.083177806,12.749699874,12.466945776,12.155258512,11.974496847,11.829417402,11.723147541,11.646113493,11.522088272,11.369604035,11.14984111,10.842088272,10.602360656,10.374204288,10.178471627,9.989810845,9.773417402,9.538239596,9.227712484,9.061709962,8.808716267,8.355551072,7.961039092,7.627581337,7.172469105,6.855233291,6.662870113,6.430052963,6.182254729,5.908388398,5.641240858,5.588337957,5.723702396,5.86067087,5.888171501,5.812156368,5.741215637,5.685064313,5.703485498,5.641432535,5.667117276
9.636005044,9.756176545,9.854718789,9.938592686,10.038648172,10.137563682,10.229952081,10.334668348,10.438617907,10.578310214,10.754572509,10.928847415,11.083460277,11.237941992,11.412943253,11.654224464,11.95317024,12.172176545,12.404126103,12.654355612,12.962249685,13.270537201,13.55480454,13.901578815,14.229306431,14.508247163,14.654153846,14.634027743,14.554673392,14.498491803,14.490229508,14.485851198,14.463606557,14.476701135,14.437457755,14.352242119,14.362108449,14.403187894,14.473039092,14.587682219,14.683087011,14.775152585,14.683409836,14.596126103,14.617150063,14.621155107,14.557851198,14.615132409,14.912,15.052388398,15.096272383,15.125417402,15.120423707,15.230244641,15.430052963,15.665916772,15.968373266,16.243863808,16.629740227,16.916267339,17.183778058,17.473795712,17.875974779,18.383142497,18.680131148,19.035773014,19.429639344,19.920474149,20.275823455,20.598587642,20.852277427,21.165034048,21.559636822,21.940751576,22.304070618,22.567798235,22.410491803,22.204832282,22.068680958,22.029609079,21.783566204,21.519031526,21.334769231,21.205861286,21.168474149,21.195813367,21.257220681,21.40642623,21.493588903,21.604650694,21.754491803,21.904252207,22.063949559,22.271485498,22.478678436,22.661649433,22.868005044,23.073947037,23.277911728,23.495384615,23.705099622,23.981477932,24.240312736,24.503606557,24.805306431,25.083873897,25.411117276,25.722915511,25.991889029,26.146693569,26.151919294,26.007354351,25.785129887,25.640534678,25.609150063,25.648958386,25.711656999,25.799031526,25.882673392,25.948216898,26.037820933,26.15801261,26.197790668,26.138491803,25.929856242,25.688746532,25.494617907,25.317992434,25.097240858,24.873220681,24.683601513,24.530320303,24.436489281,24.149104666,23.77874401,23.446860025,23.285034048,23.16607314,22.875712484,22.648645649,22.579722573,22.477669609,22.305513241,22.031344262,21.719233291,21.382698613,21.065654477,20.732469105,20.500186633,20.35924338,20.281644388,20.144938209,20.011894073,19.843571248,19.649876419,19.496837327,19.356832282,19.274612863,19.17384111,19.016998739,18.860307692,18.681210593,18.593674653,18.529725095,18.427530895,18.282209332,18.091187894,17.903132409,17.71748802,17.637659521,17.578249685,17.485568726,17.326698613,17.116580076,16.915682219,16.742345523,16.553331652,16.389871375,16.225523329,16.098340479,15.957831021,15.799757881,15.656837327,15.494335435,15.301427491,15.260892812,15.187258512,15.103485498,15.021871375,14.93179319,14.821447667,14.656090794,14.434834805,14.245377049,14.075419924,13.912282472,13.743687264,13.562935687,13.341619168,13.089442623,12.772983607,12.48035309,12.125921816,11.827500631,11.581679697,11.440403531,11.435339218,11.390184111,11.251430013,11.032645649,10.762633039,10.563520807,10.334375788,10.120887768,9.849180328,9.666532156,9.54154855,9.368191677,9.180166456,8.899419924,8.501619168,8.201604035,7.696474149,7.314189155,6.951727617,6.70534174,6.449412358,6.166970996,5.912423707,5.660307692,5.473079445,5.413699874,5.529513241,5.571187894,5.535667087,5.495465322,5.440544767,5.425836066,5.36992686,5.402794451
9.662315259,9.770794451,9.874824716,9.969725095,10.081533417,10.182042875,10.268590164,10.351485498,10.43970744,10.57413367,10.755238335,10.92578058,11.080675914,11.233704918,11.404025221,11.612791929,11.912050441,12.134406053,12.336453972,12.58259773,12.869851198,13.18370744,13.470930643,13.814103405,14.17185372,14.504988651,14.798153846,14.950052963,14.931571248,14.89541488,14.880464061,14.85786633,14.833291299,14.836791929,14.794713745,14.706138714,14.751929382,14.842209332,14.908872636,14.9872686,15.103586381,15.166607818,15.065906683,15.011813367,14.99089029,14.931087011,14.772701135,14.973639344,15.273604035,15.382204288,15.431071879,15.449462799,15.493619168,15.572337957,15.609563682,15.757185372,16.07013367,16.271727617,16.545129887,16.87007314,17.143293821,17.436660782,17.773931904,18.126345523,18.465311475,18.854930643,19.383667087,19.918143758,20.341467844,20.817039092,21.183051702,21.367162673,21.642411097,22.067773014,22.449765448,22.792100883,22.829114754,22.589921816,22.430910467,22.230234552,21.911344262,21.66837831,21.506209332,21.378572509,21.292953342,21.313311475,21.333387137,21.413387137,21.55497604,21.690431274,21.806960908,21.956277427,22.118163934,22.318355612,22.515722573,22.686163934,22.854688525,23.03258512,23.213064313,23.430547289,23.633593947,23.889240858,24.148398487,24.400686003,24.666693569,24.954007566,25.27912232,25.602562421,25.773034048,25.728807062,25.689039092,25.770552333,25.788771753,25.690471627,25.698562421,25.760958386,25.83503657,25.965326608,26.080050441,26.194986129,26.420196721,26.567525851,26.315409836,26.110375788,25.842320303,25.565740227,25.361442623,25.155682219,24.908186633,24.651591425,24.348226986,24.13015889,24.155662043,24.04221942,23.728373266,23.381467844,23.109054224,22.915026482,22.5632686,22.358002522,22.252519546,22.206456494,22.077629256,21.87193947,21.592171501,21.286466583,20.972973518,20.658875158,20.385361917,20.18435309,20.050885246,19.94265826,19.814476671,19.745039092,19.686063052,19.57319546,19.403813367,19.198083228,19.041180328,18.887546028,18.744191677,18.638456494,18.497947037,18.389185372,18.278335435,18.19206053,18.078779319,17.895959647,17.685044136,17.544393443,17.454819672,17.382274905,17.274471627,17.145301387,16.984998739,16.778834805,16.571500631,16.401896595,16.236842371,16.089654477,15.961644388,15.802562421,15.607525851,15.412509458,15.204216898,15.11882976,15.052156368,14.976766709,14.898501892,14.849795712,14.750446406,14.54820681,14.317407314,14.134930643,14.000282472,13.853639344,13.671929382,13.477699874,13.262163934,13.036882724,12.71637831,12.435056747,12.102446406,11.762078184,11.490713745,11.229538462,11.167495586,11.1616343,11.041331652,10.781044136,10.56917024,10.389326608,10.131662043,9.954764187,9.745936948,9.563984868,9.457482976,9.308398487,9.19784111,9.024,8.692358134,8.262537201,7.763944515,7.353644388,6.961472888,6.657815889,6.389356873,6.153967213,5.971157629,5.757044136,5.524529634,5.336443884,5.238113493,5.217281211,5.215788146,5.252025221,5.201271122,5.133851198,5.15754855,5.185846154
9.746017654,9.770572509,9.865664565,9.974063052,10.094728878,10.202300126,10.297604035,10.37868348,10.464988651,10.595440101,10.758940731,10.920534678,11.080090794,11.236711223,11.40117024,11.577795712,11.853528373,12.084226986,12.266653216,12.50131652,12.777382093,13.083319042,13.374496847,13.714189155,14.062123581,14.391858764,14.695636822,15.016958386,15.259571248,15.298562421,15.290269861,15.244872636,15.196761665,15.214819672,15.197760404,15.151606557,15.195117276,15.250834805,15.290764187,15.369725095,15.475742749,15.516166456,15.435530895,15.349155107,15.30102396,15.185906683,15.023313997,15.259591425,15.530996217,15.648020177,15.708216898,15.742022699,15.830063052,15.911495586,16.000897856,16.033523329,16.152090794,16.383011349,16.650814628,16.916640605,17.224383354,17.569725095,17.907904161,18.226098361,18.587137453,19.019369483,19.355218159,19.744706179,20.122108449,20.568918033,20.928373266,21.264191677,21.677639344,22.186925599,22.621972257,22.973064313,23.162955864,22.928746532,22.614587642,22.313200504,22.028519546,21.820005044,21.648736444,21.510103405,21.407263556,21.419470366,21.423667087,21.497715006,21.636691047,21.771208071,21.882199243,21.980771753,22.116055485,22.284923077,22.458300126,22.613215637,22.771934426,22.957619168,23.129997478,23.326698613,23.551757881,23.796872636,24.051631778,24.294991173,24.557286255,24.832675914,25.101245902,25.326627995,25.423848676,25.291258512,25.14201261,25.080998739,25.214002522,25.488393443,25.702032787,25.803752837,25.821941992,25.836216898,25.957952081,26.151092055,26.41459773,26.459258512,26.236297604,26.050965952,25.743586381,25.478446406,25.246456494,25.036368222,24.74814628,24.412287516,24.059218159,23.79176797,23.785805801,23.845245902,23.6576343,23.355863808,23.087213115,22.777291299,22.387419924,22.126234552,21.951465322,21.906017654,21.815253468,21.645598991,21.396136192,21.152736444,20.877740227,20.598406053,20.368020177,20.127354351,19.891066835,19.754259773,19.601624212,19.501699874,19.459752837,19.406032787,19.326547289,19.232010088,19.169977301,19.008847415,18.777674653,18.57956116,18.433886507,18.360383354,18.273735183,18.074259773,17.997447667,17.88887768,17.692226986,17.509235813,17.366981084,17.269245902,17.195470366,17.117064313,16.971117276,16.768141236,16.554844893,16.378814628,16.20548802,16.043944515,15.887273644,15.736907945,15.564297604,15.385281211,15.224988651,15.050037831,14.902789407,14.840887768,14.763087011,14.700509458,14.616645649,14.427974779,14.209200504,14.020045397,13.884327869,13.747450189,13.570350567,13.344746532,13.1470971,12.938380832,12.597245902,12.304746532,12.004771753,11.683066835,11.413074401,11.100105927,10.940277427,10.909598991,10.798648172,10.561099622,10.358627995,10.161755359,9.964015132,9.819631778,9.653326608,9.471505675,9.340529634,9.202491803,9.022244641,8.908348045,8.684549811,8.16724338,7.668176545,7.260055485,6.916337957,6.714259773,6.565679697,6.408605296,6.216373266,5.964257251,5.690411097,5.390759142,5.208504414,5.014355612,4.952514502,4.969059269,4.954390921,4.917074401,4.921795712,4.950849937
9.88519546,9.802885246,9.861881463,9.971551072,10.086860025,10.199303909,10.307147541,10.395843632,10.49080454,10.607092055,10.746996217,10.903132409,11.071152585,11.238416141,11.386522068,11.547500631,11.775283733,12.026148802,12.198789407,12.424484237,12.679455233,12.974315259,13.248625473,13.588075662,13.901054224,14.236105927,14.531924338,14.835208071,15.150315259,15.432716267,15.588327869,15.631919294,15.643651955,15.658421185,15.611662043,15.556539723,15.575878941,15.643742749,15.708832282,15.771248424,15.845356873,15.837215637,15.730037831,15.651016393,15.570421185,15.429760404,15.284630517,15.474108449,15.736322825,15.88986633,15.975838588,16.04379319,16.144847415,16.264343001,16.384030265,16.420751576,16.394774275,16.584010088,16.81378058,17.089432535,17.319535939,17.629911728,18.063152585,18.449452711,18.926940731,19.282935687,19.577896595,19.844781841,20.096191677,20.487293821,20.806395965,21.224675914,21.646759142,22.092993695,22.635894073,23.055011349,23.268660782,22.938471627,22.666168979,22.3967314,22.151878941,21.949871375,21.74096343,21.566174023,21.476035309,21.47608575,21.482784363,21.553361917,21.698572509,21.822143758,21.923167718,22.018037831,22.146522068,22.319838588,22.480615385,22.640423707,22.812933165,22.982749054,23.173336696,23.364569987,23.577190416,23.793674653,24.030204288,24.244852459,24.458965952,24.699712484,24.900791929,25.013861286,24.973598991,24.796812106,24.598527112,24.508812106,24.585119798,24.919364439,25.257896595,25.404095839,25.361664565,25.358083228,25.607303909,25.943757881,26.169654477,26.21319546,26.127525851,25.914542245,25.622375788,25.379440101,25.122441362,24.876569987,24.592010088,24.296070618,23.910113493,23.586269861,23.470648172,23.449644388,23.37717024,23.213770492,23.024191677,22.757165195,22.408615385,21.995430013,21.721190416,21.544191677,21.463203026,21.335727617,21.155218159,20.966083228,20.766153846,20.523076923,20.281765448,20.069528373,19.838143758,19.62376797,19.442007566,19.334607818,19.272564943,19.209180328,19.140176545,19.039152585,18.993079445,18.931187894,18.791677175,18.641563682,18.455152585,18.308862547,18.203339218,18.019742749,17.854880202,17.813215637,17.654688525,17.468993695,17.328363178,17.154421185,17.058865069,17.014577554,16.904696091,16.775011349,16.592181589,16.394955864,16.179399748,15.982093317,15.795430013,15.657644388,15.537523329,15.365054224,15.216615385,15.084832282,14.903162673,14.726960908,14.621810845,14.51585372,14.445649433,14.343313997,14.091298865,13.849190416,13.708751576,13.600343001,13.43696343,13.254607818,13.070930643,12.769240858,12.417321564,12.192322825,11.896988651,11.593563682,11.27468348,11.037225725,10.789790668,10.660348045,10.528564943,10.306229508,10.094940731,9.888887768,9.715339218,9.628015132,9.507530895,9.368696091,9.269326608,9.137129887,8.961977301,8.691974779,8.405094578,8.071384615,7.808050441,7.593775536,7.347601513,7.076519546,6.80052459,6.545583859,6.222355612,5.906108449,5.652569987,5.458390921,5.281160151,5.022274905,4.869346784,4.791828499,4.724116015,4.695001261,4.706481715,4.70131652
10.157810845,9.992050441,9.921513241,9.965931904,10.063334174,10.16957377,10.299308953,10.405124842,10.508842371,10.629175284,10.742819672,10.889715006,11.055919294,11.223192938,11.3616343,11.50791425,11.693891551,11.951929382,12.13576797,12.333054224,12.565810845,12.836428752,13.110698613,13.416221942,13.695909206,14.009755359,14.336393443,14.631324086,14.908872636,15.227863808,15.486032787,15.692640605,15.891137453,16.031818411,16.000867591,15.915631778,15.929916772,16.004035309,16.078970996,16.134577554,16.170290038,16.150416141,16.031112232,15.952786885,15.852166456,15.70295082,15.559566204,15.669215637,15.960433796,16.121129887,16.238395965,16.326728878,16.46429256,16.577119798,16.737593947,16.816615385,16.762663304,16.788680958,17.005276166,17.191788146,17.504736444,17.778572509,18.062860025,18.451873897,18.93021942,19.297372005,19.658996217,20.048110971,20.321422446,20.75415889,21.068680958,21.310335435,21.615636822,22.025957125,22.515702396,22.950870113,23.105210593,22.699238335,22.457896595,22.224373266,22.006194199,21.824655738,21.666401009,21.519969735,21.459641866,21.471556116,21.51924338,21.580398487,21.699722573,21.813962169,21.910345523,22.017735183,22.152201765,22.313846154,22.471374527,22.647677175,22.846718789,23.036761665,23.239495586,23.437326608,23.623071879,23.796600252,23.994925599,24.190315259,24.373851198,24.547732661,24.675631778,24.656221942,24.495596469,24.180045397,23.950587642,23.960171501,24.112403531,24.410612863,24.652075662,24.768494325,24.795208071,25.043773014,25.446567465,25.746229508,25.904786885,25.94627995,25.873230769,25.767394704,25.542849937,25.329240858,25.117598991,24.831596469,24.545765448,24.271303909,23.927949559,23.550517024,23.258693569,23.124580076,23.066653216,22.977775536,22.838708701,22.616,22.336332913,21.958466583,21.652872636,21.391556116,21.172156368,20.982910467,20.829588903,20.741649433,20.627218159,20.427732661,20.193250946,19.96712232,19.769563682,19.571641866,19.402673392,19.242713745,19.083510719,18.98008575,18.900761665,18.813276166,18.747591425,18.703626734,18.587823455,18.44724338,18.299238335,18.207737705,18.092509458,17.91334174,17.743566204,17.636388398,17.541286255,17.418007566,17.246910467,17.087445145,16.92904918,16.829366961,16.813861286,16.730431274,16.587056747,16.373901639,16.147430013,15.947399748,15.753069357,15.591788146,15.469578815,15.294860025,15.179460277,15.024907945,14.838335435,14.69710971,14.52969483,14.317407314,14.179762926,14.15258512,13.960262295,13.714118537,13.526678436,13.404398487,13.256221942,13.154522068,12.960988651,12.613155107,12.278718789,12.058673392,11.810461538,11.491702396,11.200252207,10.967102144,10.744040353,10.550325347,10.314532156,10.157225725,9.995339218,9.826148802,9.625291299,9.466078184,9.337715006,9.252549811,9.213810845,9.152998739,9.027440101,8.817008827,8.577684741,8.4449029,8.274562421,8.037205549,7.71287768,7.277558638,6.807021438,6.483510719,6.27258512,6.025543506,5.772993695,5.54184111,5.295313997,5.13442623,5.002037831,4.830184111,4.662184111,4.542345523,4.466955864,4.43859773
10.445578815,10.270002522,10.123883985,10.036791929,10.062002522,10.154844893,10.284691047,10.404035309,10.541074401,10.667228247,10.771137453,10.892247163,11.04437831,11.205397226,11.341417402,11.463152585,11.625321564,11.841382093,12.067873897,12.234663304,12.454769231,12.712827238,12.961795712,13.242925599,13.493326608,13.750284994,14.075308953,14.385977301,14.6943657,15.004216898,15.260116015,15.473119798,15.681715006,15.900701135,16.082854981,16.167203026,16.238617907,16.288151324,16.362380832,16.447293821,16.480716267,16.445972257,16.34861034,16.24029256,16.132953342,15.986885246,15.862537201,15.900872636,16.150244641,16.364297604,16.504302648,16.633503153,16.78154855,16.880746532,16.97623203,17.127818411,17.068469105,17.02540227,17.242027743,17.453790668,17.636015132,17.947843632,18.228055485,18.544706179,18.924822194,19.342708701,19.720373266,20.062749054,20.445175284,20.922844893,21.334547289,21.628186633,21.913432535,22.280363178,22.709175284,23.111495586,22.995601513,22.513039092,22.251611602,22.00134174,21.786179067,21.629084489,21.513785624,21.399515763,21.378078184,21.444025221,21.503455233,21.568484237,21.66808575,21.775334174,21.871626734,21.987954603,22.11614628,22.259107188,22.417018916,22.609765448,22.819238335,23.01979319,23.236489281,23.416221942,23.580923077,23.742759142,23.9472686,24.152867591,24.334728878,24.46364691,24.466209332,24.295172762,24.065220681,23.714481715,23.435177806,23.534325347,23.742728878,23.969099622,24.136484237,24.353543506,24.542174023,24.837891551,25.216121059,25.436126103,25.545846154,25.593704918,25.575737705,25.573064313,25.464776797,25.237397226,25.042633039,24.840796974,24.588509458,24.321745271,24.111152585,23.756872636,23.285871375,22.969321564,22.803873897,22.729886507,22.619137453,22.428519546,22.173598991,21.850643127,21.556660782,21.319969735,21.070698613,20.831969735,20.570522068,20.446113493,20.372711223,20.248615385,20.123308953,19.938330391,19.748348045,19.536181589,19.355944515,19.186401009,18.958163934,18.742678436,18.581064313,18.50978058,18.493094578,18.464312736,18.338179067,18.105079445,17.908479193,17.841442623,17.926738966,17.872242119,17.629750315,17.391455233,17.342860025,17.297039092,17.128716267,16.871969735,16.744514502,16.632383354,16.657644388,16.621820933,16.502860025,16.287001261,16.048121059,15.847203026,15.672171501,15.479525851,15.328050441,15.19497604,15.105039092,14.945886507,14.755137453,14.578925599,14.433311475,14.256161412,14.01261034,13.92391425,13.8207314,13.607778058,13.387500631,13.23842623,13.08408575,12.991061791,12.860489281,12.584030265,12.280050441,11.964055485,11.694900378,11.423344262,11.157397226,10.961261034,10.765992434,10.609190416,10.371954603,10.202774275,10.074027743,9.908126103,9.665462799,9.431949559,9.174567465,9.045084489,9.028660782,8.954582598,8.905482976,8.858088272,8.769805801,8.721563682,8.64297604,8.414174023,7.919404792,7.434461538,7.078517024,6.795641866,6.533609079,6.292408575,6.117286255,5.794754098,5.498693569,5.34347541,5.187308953,4.979783102,4.805861286,4.601624212,4.421155107,4.298764187
10.762068096,10.55287768,10.374214376,10.223878941,10.128211854,10.161160151,10.26931652,10.394421185,10.55497604,10.695828499,10.805972257,10.908680958,11.037921816,11.188297604,11.317114754,11.421740227,11.564620429,11.74008575,11.980055485,12.153795712,12.340317781,12.604095839,12.845972257,13.090007566,13.319606557,13.555440101,13.853931904,14.182870113,14.47415889,14.728474149,14.947419924,15.160958386,15.373134931,15.573820933,15.793039092,16.02837831,16.208544767,16.30423203,16.384141236,16.487979823,16.594764187,16.653578815,16.651409836,16.53757377,16.406446406,16.272998739,16.140196721,16.161593947,16.337916772,16.646940731,16.824221942,16.943969735,17.06843884,17.182123581,17.267843632,17.371026482,17.366809584,17.333962169,17.526295082,17.810865069,18.074118537,18.262446406,18.460166456,18.800998739,19.212721311,19.533730139,19.991011349,20.30435309,20.699722573,21.068297604,21.400686003,21.756822194,22.101982346,22.440605296,22.825240858,23.12198739,22.893709962,22.411339218,22.07865826,21.829084489,21.603883985,21.437760404,21.322532156,21.266774275,21.282189155,21.382769231,21.467803279,21.536968474,21.616453972,21.718274905,21.835904161,21.964247163,22.08887768,22.217220681,22.371974779,22.549417402,22.737412358,22.929674653,23.13518285,23.327515763,23.516277427,23.700791929,23.874996217,24.065523329,24.23415889,24.26230517,24.108307692,23.776786885,23.473291299,23.222113493,23.016433796,23.1472686,23.394027743,23.606527112,23.774799496,24.083470366,24.348923077,24.623233291,24.956348045,25.1152686,25.205034048,25.315379571,25.364166456,25.399293821,25.374456494,25.176786885,24.892711223,24.661629256,24.476822194,24.307399748,24.08332913,23.831899117,23.380267339,23.016675914,22.747258512,22.523319042,22.264201765,22.133356873,21.945775536,21.622456494,21.342617907,21.117437579,20.907349306,20.748892812,20.58814628,20.318557377,20.110204288,19.946259773,19.955258512,19.914340479,19.759061791,19.600554855,19.407364439,19.227803279,19.063959647,18.830738966,18.491994956,18.184867591,18.07696343,18.070708701,17.9023657,17.685528373,17.493013871,17.379571248,17.606769231,17.760332913,17.702960908,17.510738966,17.337593947,17.231737705,17.05430517,16.755954603,16.610522068,16.460469105,16.450673392,16.435177806,16.335384615,16.157034048,15.936595208,15.748398487,15.564196721,15.377604035,15.16992686,15.045962169,14.952575032,14.816635561,14.655354351,14.513482976,14.391394704,14.209916772,13.934295082,13.736312736,13.640998739,13.455858764,13.276711223,13.08268348,12.886143758,12.820358134,12.743959647,12.542769231,12.322148802,12.022032787,11.672655738,11.37097604,11.150991173,10.919424968,10.756247163,10.612580076,10.443591425,10.285034048,10.132297604,9.868882724,9.620862547,9.395823455,9.137422446,8.974143758,8.882481715,8.770824716,8.696201765,8.631949559,8.577916772,8.584887768,8.657119798,8.593815889,8.152302648,7.753190416,7.39614628,7.095848676,6.783868852,6.520100883,6.172529634,5.983889029,5.832484237,5.583071879,5.290481715,5.062567465,4.898471627,4.725185372,4.595127364,4.457240858
11.080544767,10.920504414,10.698814628,10.483026482,10.330814628,10.246527112,10.288040353,10.390809584,10.53156116,10.695505675,10.818905422,10.922875158,11.041361917,11.17267087,11.294153846,11.392252207,11.521957125,11.686557377,11.898542245,12.08858512,12.241321564,12.481825977,12.747197982,12.940993695,13.149134931,13.386088272,13.691419924,13.987167718,14.238274905,14.444812106,14.63007314,14.816181589,15.023788146,15.234259773,15.487868852,15.754602774,15.97348802,16.119021438,16.225210593,16.312343001,16.382456494,16.468630517,16.611228247,16.749094578,16.743798235,16.596257251,16.426249685,16.45851198,16.561846154,16.86061034,17.093498108,17.277377049,17.439263556,17.581598991,17.64519546,17.680686003,17.691430013,17.665361917,17.838688525,18.1647314,18.500993695,18.741356873,18.96584111,19.143656999,19.371994956,19.674542245,20.087566204,20.449291299,20.806063052,21.147339218,21.488080706,21.812186633,22.145825977,22.494123581,22.812993695,22.940459016,22.646688525,22.273119798,21.914148802,21.662093317,21.467783102,21.314481715,21.215828499,21.189931904,21.232544767,21.327556116,21.425836066,21.497815889,21.561331652,21.643399748,21.763500631,21.915228247,22.030688525,22.152635561,22.295203026,22.469498108,22.644771753,22.840776797,23.034542245,23.199515763,23.364923077,23.542083228,23.718506936,23.887283733,24.022799496,23.870567465,23.526476671,23.160726356,22.986703657,22.811177806,22.669377049,22.759303909,23.039697352,23.368131148,23.62645145,23.932226986,24.286214376,24.570027743,24.766749054,24.868580076,24.985493064,25.140862547,25.175667087,25.181145019,25.224686003,25.150174023,24.933609079,24.667994956,24.382809584,24.122330391,23.91334174,23.698300126,23.390930643,23.028479193,22.743727617,22.489029004,22.104252207,21.861649433,21.634360656,21.42213367,21.141205549,20.880423707,20.69489029,20.489825977,20.373871375,20.179218159,19.993765448,19.741740227,19.590607818,19.56362169,19.527203026,19.459349306,19.340590164,19.194703657,19.018259773,18.810693569,18.584847415,18.202441362,17.797639344,17.558870113,17.398981084,17.207596469,16.920645649,16.79369483,16.956348045,17.207102144,17.380126103,17.390708701,17.304191677,17.208464061,17.103283733,16.965810845,16.810007566,16.56793947,16.337997478,16.200151324,16.009321564,15.921745271,15.797881463,15.642501892,15.46125599,15.258501892,15.079273644,14.899944515,14.782032787,14.655001261,14.526153846,14.421003783,14.328918033,14.15176797,13.896221942,13.680242119,13.413437579,13.1696343,13.051530895,12.839112232,12.677820933,12.612650694,12.504242119,12.364701135,12.239435057,11.951253468,11.644489281,11.371319042,11.156751576,10.956751576,10.801664565,10.658138714,10.435883985,10.193704918,9.990517024,9.6992686,9.427087011,9.242572509,9.133750315,9.11830517,9.038688525,8.92075662,8.81080454,8.678617907,8.563218159,8.435278689,8.417351828,8.549699874,8.463344262,8.105160151,7.595984868,7.234078184,6.915177806,6.515601513,6.299571248,6.268176545,6.025462799,5.78651198,5.548912989,5.298310214,5.066925599,4.8670971,4.682310214,4.55206053
11.170421185,11.166083228,11.036832282,10.82703657,10.598688525,10.443238335,10.371208071,10.398617907,10.494446406,10.675773014,10.816665826,10.927374527,11.041261034,11.154390921,11.264373266,11.373669609,11.50131652,11.647546028,11.827530895,12.016938209,12.176504414,12.371157629,12.604489281,12.797074401,12.968363178,13.218955864,13.545099622,13.75579319,13.937493064,14.129442623,14.332358134,14.522612863,14.689119798,14.881856242,15.189730139,15.454577554,15.684095839,15.850612863,15.947298865,16.001503153,16.041725095,16.149669609,16.307904161,16.515954603,16.805679697,16.924075662,16.781810845,16.764469105,16.916428752,17.098340479,17.323611602,17.568070618,17.739752837,17.908852459,18.029387137,18.056383354,18.033482976,17.978350567,18.079687264,18.295102144,18.616686003,18.954612863,19.245639344,19.465230769,19.680363178,19.906189155,20.178945776,20.531581337,20.864020177,21.21074401,21.565013871,21.906421185,22.236640605,22.500186633,22.513644388,22.471283733,22.326759142,22.008857503,21.715651955,21.499894073,21.334476671,21.212489281,21.125911728,21.118395965,21.170965952,21.261498108,21.356892812,21.441250946,21.494325347,21.567798235,21.679172762,21.813982346,21.9472686,22.09489029,22.255001261,22.435379571,22.593230769,22.737614124,22.886083228,23.015606557,23.183636822,23.38148802,23.568201765,23.727344262,23.823334174,23.688807062,23.253266078,22.839465322,22.582638083,22.457513241,22.360504414,22.455021438,22.792443884,23.29938966,23.734567465,24.126900378,24.445326608,24.643863808,24.676590164,24.780459016,24.927727617,25.059631778,25.051833544,25.034189155,25.069931904,25.06207314,24.946330391,24.735223203,24.443117276,24.145392182,23.899752837,23.63731652,23.367616646,23.090027743,22.783778058,22.538945776,22.179641866,21.89103657,21.588116015,21.348317781,21.162723834,20.990930643,20.818633039,20.59310971,20.331359395,20.095535939,19.911313997,19.698945776,19.454738966,19.254779319,19.099944515,19.039525851,19.021094578,18.952706179,18.774244641,18.551959647,18.340095839,18.109336696,17.761785624,17.367384615,16.991878941,16.742587642,16.58651198,16.439172762,16.411258512,16.563843632,16.772630517,16.808726356,16.793432535,16.834189155,16.864272383,16.876862547,16.843803279,16.686910467,16.477498108,16.278355612,16.085750315,15.885094578,15.672504414,15.471273644,15.30931652,15.138905422,14.962905422,14.783818411,14.640464061,14.532701135,14.401291299,14.305614124,14.197366961,13.998749054,13.80835309,13.667974779,13.479899117,13.166930643,12.904605296,12.746441362,12.522179067,12.350002522,12.208907945,12.034068096,11.940348045,11.840504414,11.611288777,11.387934426,11.211308953,11.014527112,10.803954603,10.59772005,10.309326608,10.100983607,9.928645649,9.72502396,9.547823455,9.368857503,9.273795712,9.215515763,9.103616646,8.981205549,8.894860025,8.800998739,8.681129887,8.516580076,8.282189155,8.264181589,8.397740227,8.266441362,7.854970996,7.387480454,7.06481715,6.769624212,6.610713745,6.473129887,6.295546028,6.098965952,5.86791425,5.504948298,5.219702396,4.894083228,4.700469105,4.56297604
11.181831021,11.309185372,11.300337957,11.124973518,10.938047919,10.77564691,10.617129887,10.505069357,10.512564943,10.651974779,10.802108449,10.920544767,11.029982346,11.134708701,11.243440101,11.357326608,11.473947037,11.600766709,11.757770492,11.937674653,12.099460277,12.271697352,12.449261034,12.647737705,12.820267339,13.051430013,13.321099622,13.502395965,13.63591425,13.808080706,14.00467087,14.228751576,14.408857503,14.595773014,14.872706179,15.124448928,15.331369483,15.500267339,15.600090794,15.64035309,15.675813367,15.83614628,16.07082976,16.277921816,16.591263556,16.931440101,17.083601513,17.157094578,17.320252207,17.452348045,17.599152585,17.809533417,18.006274905,18.187551072,18.346108449,18.454335435,18.471596469,18.39772005,18.372428752,18.529392182,18.714844893,19.045881463,19.40502396,19.72502396,19.971520807,20.184857503,20.35193947,20.62487768,20.935021438,21.278738966,21.606153846,21.922925599,22.138401009,22.175051702,22.022698613,21.98791425,21.970249685,21.726607818,21.48104918,21.293417402,21.183979823,21.120040353,21.04665826,21.048988651,21.094264817,21.175929382,21.261578815,21.341387137,21.411016393,21.489997478,21.577513241,21.733820933,21.895283733,22.027066835,22.169321564,22.313775536,22.443450189,22.579571248,22.738300126,22.910688525,23.106148802,23.264080706,23.404469105,23.51754855,23.527687264,23.399697352,23.199071879,22.576373266,22.210007566,22.080766709,22.036489281,22.221417402,22.642532156,23.146673392,23.653669609,24.126264817,24.479515763,24.769129887,24.79830517,24.847001261,24.953493064,24.996620429,24.966668348,24.924358134,24.932711223,24.932650694,24.860317781,24.738471627,24.547702396,24.315924338,24.010522068,23.709013871,23.435117276,23.205972257,22.919344262,22.615858764,22.346633039,22.010854981,21.701286255,21.530390921,21.342860025,21.165104666,21.003803279,20.827662043,20.604549811,20.422910467,20.247172762,20.031051702,19.735889029,19.416686003,19.112,18.799717528,18.647899117,18.550940731,18.404035309,18.254678436,17.982870113,17.757770492,17.574708701,17.281039092,17.02615889,16.939107188,16.798839849,16.518960908,16.179944515,16.142355612,16.256575032,16.342486759,16.346703657,16.345452711,16.400716267,16.487354351,16.594360656,16.615001261,16.467167718,16.324519546,16.171026482,15.958577554,15.734769231,15.512,15.308499369,15.133820933,14.946824716,14.734254729,14.590789407,14.452953342,14.278163934,14.121876419,14.001745271,13.832443884,13.713704918,13.596307692,13.474986129,13.323369483,13.114340479,12.973074401,12.753704918,12.486870113,12.279828499,11.989871375,11.78376797,11.618723834,11.411591425,11.242673392,11.064413619,10.860176545,10.670769231,10.522461538,10.42265826,10.335324086,10.140267339,9.906986129,9.673321564,9.460277427,9.357750315,9.250098361,9.110728878,8.991162673,8.883450189,8.777200504,8.673715006,8.536635561,8.282310214,7.980216898,8.059571248,8.184665826,7.99357377,7.587984868,7.24695082,7.005649433,6.775495586,6.583868852,6.384544767,6.112958386,5.831031526,5.489896595,5.203641866,4.952110971,4.8449029,4.692025221
11.161543506,11.339692308,11.468802018,11.442915511,11.303848676,11.157578815,10.972196721,10.73710971,10.589831021,10.634027743,10.778501892,10.895788146,10.999546028,11.101891551,11.213921816,11.324721311,11.430093317,11.542819672,11.677588903,11.834390921,11.978148802,12.128766709,12.293649433,12.470769231,12.673886507,12.867641866,13.076569987,13.24338966,13.312474149,13.51112232,13.680766709,13.896020177,14.118446406,14.341770492,14.596569987,14.838052963,15.035601513,15.205296343,15.286587642,15.320575032,15.395137453,15.577099622,15.824080706,16.102506936,16.415596469,16.780680958,17.128928121,17.438607818,17.684882724,17.859470366,18.007223203,18.196539723,18.359445145,18.490703657,18.639677175,18.787974779,18.862537201,18.814244641,18.767051702,18.901124842,19.013810845,19.191102144,19.500872636,19.842895334,20.198728878,20.477679697,20.677790668,20.823021438,21.069286255,21.368988651,21.610733922,21.785482976,21.779127364,21.648191677,21.509447667,21.569604035,21.628912989,21.468660782,21.215293821,21.089765448,21.047283733,21.014940731,20.952928121,20.977291299,21.04502396,21.121563682,21.182577554,21.226249685,21.299833544,21.405155107,21.528776797,21.662436318,21.788075662,21.92245145,22.073583859,22.192827238,22.344716267,22.529493064,22.707087011,22.874905422,23.003298865,23.104554855,23.199051702,23.274854981,23.294809584,23.143889029,22.785825977,22.453245902,22.005044136,21.684307692,21.737089533,22.070355612,22.517649433,23.089392182,23.647747793,24.029871375,24.366698613,24.678517024,24.824948298,24.870728878,24.879798235,24.893266078,24.87882976,24.833271122,24.793876419,24.78125599,24.741134931,24.680242119,24.564852459,24.358325347,24.107248424,23.822860025,23.545220681,23.296080706,23.043248424,22.729482976,22.509639344,22.264564943,22.001886507,21.786068096,21.599919294,21.389245902,21.218895334,21.053145019,20.881704918,20.702627995,20.506532156,20.246860025,19.931450189,19.623203026,19.279525851,18.967798235,18.680736444,18.499863808,18.337129887,18.175747793,18.056706179,17.883197982,17.657644388,17.470819672,17.386290038,17.304575032,17.079979823,16.779954603,16.378592686,15.971258512,15.77629256,15.7616343,15.742870113,15.718143758,15.780116015,15.900640605,16.160312736,16.260166456,16.168110971,16.102738966,16.023092055,15.85097604,15.660842371,15.444448928,15.271061791,15.146068096,14.980045397,14.754189155,14.588469105,14.425230769,14.264504414,14.073180328,13.952050441,13.816564943,13.670375788,13.458774275,13.252105927,13.124398487,13.018673392,12.943818411,12.857604035,12.715631778,12.510436318,12.225604035,11.993523329,11.784030265,11.493205549,11.311818411,11.174204288,10.996448928,10.858774275,10.816383354,10.693699874,10.509215637,10.224958386,9.995732661,9.763823455,9.581871375,9.424595208,9.283591425,9.117245902,8.978088272,8.8383657,8.72519546,8.620216898,8.506007566,8.291752837,7.871989912,7.682249685,7.811127364,7.808847415,7.566769231,7.335606557,7.11310971,6.802996217,6.537392182,6.301689786,6.023031526,5.727273644,5.516297604,5.353704918,5.161735183,4.992030265,4.820711223
11.024030265,11.26919546,11.481533417,11.616958386,11.691894073,11.715087011,11.420025221,11.039081967,10.742860025,10.663092055,10.758900378,10.864040353,10.949407314,11.04823203,11.158345523,11.270849937,11.371359395,11.470194199,11.584181589,11.72058512,11.845286255,11.946259773,12.105069357,12.272181589,12.465331652,12.643974779,12.805629256,12.924448928,12.984121059,13.24578058,13.415293821,13.595419924,13.823435057,14.062607818,14.319717528,14.548559899,14.736605296,14.875127364,14.940711223,14.994824716,15.163419924,15.40934174,15.709225725,16.058945776,16.391929382,16.756408575,17.123894073,17.485155107,17.828448928,18.088161412,18.336595208,18.525457755,18.683571248,18.830083228,19.012973518,19.163278689,19.212358134,19.191192938,19.136141236,19.199354351,19.297271122,19.434168979,19.659147541,19.962199243,20.314037831,20.655606557,20.918506936,21.065936948,21.24362169,21.424191677,21.463616646,21.392100883,21.274481715,21.107823455,21.05162169,21.115490542,21.157568726,21.111051702,20.913351828,20.836721311,20.908428752,20.87147541,20.839717528,20.916590164,20.999203026,21.057039092,21.082693569,21.113392182,21.220166456,21.33786633,21.426370744,21.563540984,21.718567465,21.856938209,21.963883985,22.096040353,22.265543506,22.433856242,22.592,22.714955864,22.814537201,22.902385876,22.960171501,22.940025221,22.898834805,22.488171501,22.230870113,22.157639344,21.867046658,21.455788146,21.43089029,21.848121059,22.415071879,22.995288777,23.734446406,24.150537201,24.390567465,24.60601261,24.681210593,24.713311475,24.73325599,24.756116015,24.754965952,24.721331652,24.661084489,24.611591425,24.59082976,24.570955864,24.536423707,24.417230769,24.227803279,24.020166456,23.715611602,23.438960908,23.223687264,22.95591425,22.678335435,22.442068096,22.207606557,22.003349306,21.797992434,21.605901639,21.446799496,21.277851198,21.090108449,20.87421942,20.622537201,20.337513241,20.086143758,19.886940731,19.638083228,19.291742749,19.041331652,18.873372005,18.72957377,18.60052459,18.437094578,18.229387137,18.038214376,17.94902396,17.854970996,17.700600252,17.341750315,16.919485498,16.612479193,16.222466583,15.766506936,15.495677175,15.297715006,15.165740227,15.279223203,15.464887768,15.755399748,15.886476671,15.822860025,15.794965952,15.720211854,15.632827238,15.520151324,15.315379571,15.139833544,15.001493064,14.833886507,14.648221942,14.500126103,14.321957125,14.149558638,13.989952081,13.899662043,13.824998739,13.67164691,13.46598739,13.169291299,12.890401009,12.726355612,12.656363178,12.620741488,12.471535939,12.331954603,12.211298865,12.086678436,11.86289029,11.535011349,11.343011349,11.231596469,11.03696343,10.970047919,10.959374527,10.800110971,10.543566204,10.260226986,10.0689029,9.881876419,9.669992434,9.467056747,9.267651955,9.090764187,8.936443884,8.799495586,8.70452459,8.620348045,8.531208071,8.343374527,8.052388398,7.661750315,7.515137453,7.519717528,7.367203026,7.250471627,7.128776797,6.930199243,6.687959647,6.431656999,6.189114754,5.949598991,5.74242623,5.590809584,5.341205549,5.143152585,4.956126103
